# .PCD v0.7 - Point Cloud Data file format
VERSION 0.7
FIELDS x y z
SIZE 4 4 4
TYPE F F F
COUNT 1 1 1
WIDTH 1584
HEIGHT 1
VIEWPOINT 0 0 0 1 0 0 0
POINTS 1584
DATA ascii
0.51785165 38.512234 2.1996155
0.52600551 38.578781 2.2628903
0.53441238 38.639084 2.3197069
0.4525986 38.647213 2.3558567
0.56506062 38.245243 1.9406706
0.57298052 38.309376 1.9912676
0.58202416 38.370472 2.04158
0.59180897 38.436554 2.1004193
0.60115993 38.503582 2.1638634
0.60910285 38.570099 2.2267535
0.61710685 38.632038 2.2852044
0.65652335 38.299496 1.9563627
0.66448617 38.360203 2.0061855
0.67386913 38.423817 2.0619216
0.68232411 38.491974 2.1262667
0.69064128 38.562382 2.193248
0.69933355 38.626419 2.2532032
0.70978874 38.686867 2.3084922
0.62588382 38.696404 2.3449726
0.73974991 38.294018 1.9266753
0.74730974 38.356506 1.9776481
0.75710535 38.418827 2.0317266
0.76600116 38.483349 2.09255
0.77457434 38.548786 2.1549742
0.78199828 38.615448 2.2176051
0.79107177 38.678398 2.2760532
0.79993945 38.744694 2.3379018
0.7190609 38.753056 2.3702388
0.82229668 38.284225 1.896063
0.83095384 38.347404 1.9468433
0.83997154 38.411015 2.0016026
0.84739566 38.477741 2.0645008
0.855694 38.545216 2.1283348
0.86390054 38.612438 2.1917992
0.87287974 38.675053 2.2499828
0.88180476 38.738754 2.3082516
0.90559024 38.278046 1.8692547
0.91263205 38.342613 1.9216069
0.9212119 38.407841 1.9776853
0.9295373 38.471485 2.0369718
0.93832374 38.536827 2.0983791
0.94689345 38.604015 2.1611283
0.95568252 38.669064 2.2220044
0.96474683 38.733288 2.2818644
0.97387558 38.796581 2.3424087
0.89097029 38.802017 2.3693552
0.98895782 38.269848 1.840077
0.99600887 38.332554 1.8909576
1.0049914 38.399799 1.9490716
1.0134424 38.465328 2.0092802
1.0223327 38.533272 2.0727162
1.0312086 38.599892 2.1347916
1.0399967 38.664337 2.1950951
1.0489645 38.727776 2.2547657
1.0580262 38.790562 2.3136535
1.0733104 38.260727 1.8090085
1.0797004 38.325401 1.8612359
1.087597 38.394569 1.9214472
1.0951998 38.457256 1.9795024
1.104678 38.521919 2.0393381
1.114512 38.587788 2.1005855
1.1229837 38.653915 2.1627839
1.1314899 38.720581 2.2256479
1.1406034 38.785141 2.2860768
1.1553472 38.250889 1.7788664
1.1618632 38.316921 1.8312041
1.1705328 38.387108 1.8909576
1.1793743 38.450588 1.9495533
1.1898632 38.51482 2.0091946
1.1985241 38.580452 2.0708275
1.2048029 38.645432 2.1322987
1.2126739 38.712688 2.1958387
1.2217783 38.77895 2.2580845
1.2306266 38.841564 2.3171949
1.1498665 38.845234 2.3444407
1.2383622 38.245934 1.7544264
1.2468507 38.310822 1.8045782
1.2555076 38.376392 1.8593185
1.2625397 38.439468 1.9167975
1.2715986 38.504723 1.9776856
1.2803074 38.572285 2.0411713
1.288059 38.637394 2.1022892
1.2971123 38.703548 2.1640406
1.3060639 38.768616 2.2250087
1.3144836 38.833691 2.2869308
1.3225298 38.241264 1.7326765
1.3297698 38.306168 1.7822574
1.338484 38.368675 1.8334768
1.3457243 38.43288 1.8903797
1.3539737 38.499706 1.9522586
1.362762 38.566071 2.013886
1.3704075 38.627369 2.0711668
1.3800961 38.691788 2.1310101
1.3893851 38.759613 2.1941855
1.3981436 38.827572 2.2593896
1.407025 38.894901 2.3268821
1.3226067 38.899048 2.3525894
1.4135323 38.302811 1.7620417
1.4221481 38.363659 1.8112609
1.4300994 38.426704 1.8658462
1.4375737 38.493698 1.9269869
1.4470478 38.559937 1.9878166
1.4542439 38.623047 2.0462394
1.4635236 38.688122 2.106591
1.4734896 38.754745 2.1680787
1.4827331 38.819473 2.2292802
1.4920919 38.887138 2.2965758
1.4958515 38.293591 1.7364292
1.5048736 38.35807 1.7880911
1.5129877 38.421947 1.8428512
1.5207925 38.489315 1.9039732
1.530504 38.554913 1.9639376
1.5382789 38.6194 2.0232282
1.5476636 38.682259 2.08132
1.5570914 38.746357 2.1402352
1.5661509 38.809879 2.1992776
1.5761853 38.879333 2.2666931
1.578369 38.286606 1.7105368
1.5861753 38.945721 2.3381941
1.5015918 38.952461 2.3676262
1.5875151 38.351234 1.761737
1.5951371 38.415276 1.8166857
1.6049166 38.482838 1.8778254
1.6153202 38.54752 1.9374841
1.6238869 38.614143 1.9992353
1.6314756 38.676006 2.0568595
1.6402066 38.738438 2.1143723
1.6491278 38.800362 2.1711004
1.6581891 38.86808 2.2352779
1.6616526 38.277092 1.681864
1.6676583 38.933155 2.3040459
1.6705675 38.343044 1.7331184
1.6788075 38.40691 1.7870556
1.6880431 38.474003 1.848202
1.6974567 38.539467 1.9107519
1.7073984 38.605537 1.9731734
1.7150074 38.668507 2.0323133
1.7237233 38.732052 2.0912724
1.7334634 38.79591 2.1504843
1.742322 38.862904 2.2143552
1.7462727 38.269436 1.6555187
1.7504487 38.926628 2.2810974
1.7539142 38.335232 1.7061056
1.7622682 38.9977 2.3605752
1.679636 39.00671 2.3880131
1.7621852 38.398434 1.7588311
1.7712245 38.462967 1.8171017
1.780122 38.530296 1.8821044
1.7905488 38.59758 1.9473497
1.7995224 38.663208 2.0108492
1.807323 38.728077 2.0723314
1.8159772 38.794979 2.1352127
1.8248008 38.860901 2.2005541
1.8290256 38.263229 1.6334289
1.8325871 38.925545 2.2680724
1.8369225 38.331459 1.6852584
1.8430384 38.993504 2.3431282
1.8453275 38.395527 1.7376548
1.8549734 38.457676 1.7928822
1.8629831 38.524429 1.8565012
1.8723907 38.590691 1.9230933
1.8834821 38.659748 1.9917148
1.8920833 38.725979 2.0563259
1.9009837 38.790894 2.119276
1.9103726 38.855473 2.1837504
1.9118876 38.258373 1.6148562
1.9184452 38.919052 2.2504985
1.9201328 38.324512 1.6648195
1.9261906 38.987823 2.3266649
1.9285204 38.387722 1.715721
1.9376084 38.451504 1.7708571
1.9457817 38.519413 1.8347795
1.9554249 38.584816 1.899927
1.9671878 38.652332 1.9679546
1.9746584 38.718193 2.0339456
1.9831203 38.780872 2.0961115
1.9932519 38.846413 2.1624026
1.9963945 38.256104 1.6016294
2.0019882 38.910606 2.2301168
2.0042989 38.320217 1.6495262
2.0114074 38.980427 2.3087785
2.0123947 38.380455 1.697067
2.0219519 38.444862 1.7511204
2.0293751 38.510509 1.8115432
2.0383351 38.574886 1.8748467
2.0494406 38.642326 1.942344
2.0582166 38.710365 2.0107069
2.0661354 38.773998 2.0751643
2.0761018 38.838985 2.1426129
2.0810773 38.247448 1.5884614
2.0869954 38.905003 2.213896
2.0882225 38.310284 1.6343803
2.0973282 38.9734 2.2924824
2.0960524 38.37122 1.6807219
2.1058064 38.441372 1.7372153
2.1134467 38.507175 1.7964823
2.1218991 38.570721 1.8574591
2.1312931 38.634701 1.9213299
2.1405282 38.699825 1.9865839
2.1499004 38.766018 2.0554731
2.1608803 38.830738 2.1249404
2.1728625 38.898891 2.2011607
2.1673965 38.247063 1.5843915
2.1834407 38.967793 2.2822037
2.1732736 38.308681 1.6278504
2.1890168 38.436974 1.7249757
2.1801496 38.36937 1.6722045
2.1924973 39.033985 2.3658848
2.1066146 39.04224 2.3775864
2.1985259 38.499828 1.7801974
2.2076151 38.564518 1.8412259
2.2170846 38.63081 1.9068328
2.2262933 38.695599 1.9729848
2.2363877 38.76339 2.0453191
2.2464004 38.830505 2.120398
2.2565966 38.897091 2.1977851
2.2512746 38.324154 1.6362908
2.2527072 38.386974 1.6813456
2.2663314 38.963818 2.2776248
2.2827096 38.495209 1.7688333
2.2927063 38.563042 1.8315644
2.3129532 38.690121 1.9618517
2.3033011 38.627499 1.8960261
2.3241484 38.757225 2.0359566
2.3333192 38.827671 2.1166346
2.3412788 38.298203 1.6178386
2.3492725 38.359241 1.6591102
2.3573954 38.425148 1.7067882
2.3411584 38.894314 2.1957841
2.3495615 38.961704 2.2782133
2.2774429 39.030247 2.3634856
2.3762908 38.554588 1.8187785
2.3658974 38.488655 1.7581275
2.3872492 38.619007 1.8839633
2.3977306 38.684334 1.9548056
2.4176188 38.819199 2.1096866
2.4086912 38.751209 2.0306001
2.4260199 38.884205 2.1876605
2.4356661 38.951542 2.2708995
2.4280651 38.294308 1.6192449
2.4357958 38.354 1.6590165
2.4493885 39.020882 2.3654339
2.3629131 39.030281 2.3692591
2.4437153 38.418865 1.7045447
2.4511654 38.481514 1.7533867
2.4604888 38.546917 1.8121296
2.4705627 38.61343 1.8787699
2.4821198 38.683136 1.955806
2.4916916 38.750023 2.0339561
2.5015566 38.814499 2.1110978
2.4914763 38.266819 1.6064831
2.5120866 38.877838 2.1878285
2.4954722 38.326557 1.6470493
2.5219347 38.947823 2.2767057
2.4998627 38.386177 1.6866969
2.5353687 38.478752 1.7600712
2.5453591 38.544537 1.8184447
2.5552101 38.610313 1.8833096
2.5657945 38.679474 1.9583428
2.6000564 38.278278 1.6310515
2.5764313 38.744919 2.0372787
2.6056664 38.336445 1.672106
2.6065569 38.397621 1.7148513
2.5892041 38.811699 2.1190631
2.6005385 38.876404 2.2004173
2.609695 38.949612 2.2952771
2.5337617 39.015511 2.3698275
2.6069632 38.458965 1.7591124
2.6295431 38.542412 1.8316489
2.6385615 38.605549 1.892283
2.6481743 38.672421 1.9642857
2.6626129 38.74226 2.0474191
2.6773241 38.81049 2.1335371
2.6867254 38.281769 1.6544695
2.6875911 38.875618 2.2172623
2.6968899 38.347488 1.7045376
2.7062464 38.415173 1.7555914
2.7084286 38.469223 1.7943482
2.6962216 38.948734 2.3135235
2.6218266 39.01582 2.3878744
2.7050581 38.533035 1.8441188
2.7282982 38.604187 1.9124804
2.7369311 38.668903 1.9803746
2.7494445 38.736599 2.0603566
2.7556605 38.813122 2.1550379
2.7750185 38.279053 1.679193
2.7358422 38.880486 2.2352784
2.7854006 38.345169 1.7320445
2.8005002 38.475056 1.8305917
2.8059928 38.539753 1.8811411
2.7953646 38.412067 1.7832218
2.7976987 38.608677 1.937884
2.8468246 38.802383 2.1676977
2.8300271 38.898647 2.2834353
2.7846251 38.94434 2.3308306
2.8244138 38.667957 2.0046928
2.8351495 38.734318 2.0820093
2.8658755 38.276989 1.7101859
2.8776116 38.345097 1.7660894
2.8880644 38.412994 1.8193632
2.8958261 38.53915 1.9159291
2.8933544 38.620983 1.9853882
2.890897 38.475822 1.8656605
2.880862 38.690998 2.0506475
2.9443572 38.842983 2.2490735
2.8698709 38.936401 2.3430562
2.9227097 38.733536 2.1148801
2.9341176 38.800964 2.1965301
2.9521298 38.273495 1.7426677
2.961612 38.339092 1.7967947
2.9826362 38.633995 2.0392609
2.9726293 38.407993 1.8514816
2.9792614 38.473217 1.903332
2.9869151 38.538795 1.9579157
3.0105867 38.732185 2.1524239
3.0208325 38.796127 2.2257445
3.0331826 38.861801 2.3049641
2.9569707 38.932739 2.3648434
3.0413704 38.276749 1.7853413
3.0486872 38.340115 1.8377709
3.0583308 38.406258 1.8919748
3.0664549 38.470325 1.9449333
3.0742459 38.586109 2.0422397
3.0700171 38.650509 2.0988407
3.0758226 38.535652 2.0010872
3.1002882 38.733761 2.195832
3.1109836 38.799751 2.2691538
3.1219857 38.868687 2.3506205
3.0469916 38.933792 2.3984368
3.1289964 38.274422 1.8279219
3.1370394 38.3395 1.8830453
3.1467533 38.405602 1.9391396
3.1547434 38.468086 1.9924259
3.1608844 38.599335 2.1021457
3.1563406 38.662483 2.1557605
3.161171 38.538898 2.051383
3.1929398 38.734039 2.2416334
3.2038121 38.800343 2.3125792
3.2196698 38.274986 1.8785846
3.2263646 38.339211 1.9338689
3.2353556 38.403969 1.9907942
3.2438591 38.497147 2.0681565
3.2411535 38.61887 2.1652355
3.2374458 38.684559 2.2198095
3.2449005 38.556019 2.1150372
3.2852893 38.733471 2.2889757
3.3105383 38.27578 1.9326762
3.3178866 38.340755 1.9898046
3.3258605 38.452682 2.0828512
3.3273635 38.388023 2.0332372
3.3235991 38.640602 2.2316263
3.3243904 38.576096 2.1788325
3.3268285 38.513317 2.1305759
3.4071615 38.656208 2.2933691
3.3736968 38.730152 2.3349767
3.2933013 38.798088 2.3534734
3.4009538 38.275486 1.9876596
3.4104946 38.340599 2.0462732
3.4059215 38.596027 2.2454436
3.4063959 38.532768 2.1951215
3.4088161 38.469063 2.14715
3.407455 38.408669 2.0986304
3.4884102 38.275589 2.0440595
3.4890501 38.549847 2.2606177
3.4899938 38.610767 2.3088205
3.4883103 38.486973 2.2113857
3.4888356 38.674072 2.3568439
3.4616752 38.727913 2.384443
3.4898267 38.423283 2.1623716
3.4875267 38.36327 2.1133785
3.5663512 38.318985 2.1302629
3.5705273 38.377293 2.1784563
3.5690224 38.503796 2.2759597
3.5696106 38.440392 2.2269664
3.5652761 38.25531 2.0802701
3.569382 38.567139 2.3252108
3.5684171 38.630703 2.3737645
3.6456978 38.274166 2.150717
3.6494887 38.331928 2.1965749
3.6477835 38.46257 2.2953751
3.6489053 38.526009 2.3451996
3.6486332 38.396278 2.2451601
3.7250051 38.293667 2.2203777
3.7261961 38.421337 2.3151042
3.7279444 38.48064 2.3619442
3.7260873 38.357407 2.2674451
3.8027463 38.247387 2.2412522
3.8041208 38.311798 2.2869856
3.8054698 38.374908 2.3328247
3.8785145 38.271984 2.3094504
3.8636498 38.342426 2.3476615
3.9514053 38.28112 2.3649848
-2.1836917 38.256763 3.1046114
-2.2625363 38.26931 3.1733792
-2.1042783 38.251732 3.0478039
-2.0936842 38.320789 3.1293209
-2.1745801 38.326847 3.1896086
-2.0116639 38.309105 3.0630867
-1.9310329 38.297726 3
-1.9206932 38.364441 3.0832224
-2.0007772 38.376686 3.1507795
-1.8498632 38.286419 2.9411738
-1.8401512 38.353184 3.0197523
-1.828614 38.423527 3.1113701
-1.9089891 38.433796 3.176851
-1.7674363 38.276337 2.8903942
-1.7592958 38.3423 2.962328
-1.7488523 38.412315 3.0479174
-1.7370123 38.479122 3.1363451
-1.8170854 38.49107 3.2039161
-1.685867 38.269966 2.8456597
-1.6771783 38.335056 2.9134059
-1.6677185 38.404011 2.9925308
-1.6585542 38.471569 3.0784829
-1.6021439 38.264416 2.8015051
-1.5938407 38.327091 2.8649604
-1.5848786 38.391869 2.9336231
-1.5778562 38.45948 3.0153408
-1.5691185 38.527229 3.1036639
-1.6487594 38.537312 3.1662652
-1.52016 38.252144 2.752121
-1.5123185 38.318008 2.8183913
-1.5034305 38.382774 2.8835313
-1.4961039 38.449142 2.9584453
-1.4869463 38.516041 3.0407953
-1.4742632 38.586754 3.1326067
-1.5572876 38.598797 3.1993704
-1.4372549 38.240417 2.7047954
-1.4299985 38.305691 2.7705569
-1.4214911 38.369595 2.8342257
-1.4139162 38.436581 2.9043643
-1.4044112 38.504238 2.9815903
-1.3914409 38.575626 3.070693
-1.346051 38.295914 2.7261872
-1.3392677 38.364208 2.795424
-1.3317587 38.432373 2.8657103
-1.3234324 38.497681 2.9366119
-1.3131106 38.564857 3.0168853
-1.3018384 38.633026 3.1051409
-1.3811054 38.64222 3.1591823
-1.263286 38.294064 2.6907539
-1.2555001 38.362091 2.7591109
-1.2481341 38.426857 2.8256903
-1.2402591 38.488205 2.8901532
-1.2324522 38.551895 2.9627271
-1.2216585 38.626797 3.0566423
-1.2089348 38.695885 3.1463945
-1.2899814 38.70118 3.1930737
-1.1807897 38.284103 2.6469622
-1.1731498 38.351376 2.7147443
-1.1655136 38.417099 2.7818158
-1.1567152 38.480606 2.8474467
-1.1496304 38.544823 2.9174359
-1.1390342 38.61853 3.0059404
-1.1281469 38.686722 3.0949283
-1.0979875 38.275856 2.6042299
-1.0909454 38.3437 2.6729841
-1.0819424 38.406769 2.7366536
-1.0726699 38.469383 2.8001423
-1.0657164 38.534321 2.8691752
-1.0557035 38.604561 2.9484069
-1.0468012 38.675186 3.037241
-1.0365691 38.744003 3.1257322
-1.1183136 38.752823 3.1784172
-1.0158592 38.267132 2.5606909
-1.0068754 38.331413 2.6253169
-0.99756408 38.395679 2.6900237
-0.98924583 38.462555 2.7581563
-0.98199761 38.530788 2.8297315
-0.97276074 38.595299 2.8999994
-0.96511847 38.661854 2.9799554
-0.95494896 38.732544 3.0685437
-0.93452466 38.260098 2.5187275
-0.9249776 38.322407 2.5815217
-0.91641718 38.388054 2.6484876
-0.90873402 38.454636 2.7163911
-0.90093637 38.521496 2.7854581
-0.89173329 38.585026 2.8528147
-0.88429528 38.651047 2.9283028
-0.87396508 38.722782 3.0150125
-0.8634004 38.793335 3.1014473
-0.94494772 38.802902 3.1560955
-0.85160136 38.247692 2.4688754
-0.8435955 38.313229 2.5375659
-0.83609277 38.381786 2.6082594
-0.82616371 38.447365 2.6746094
-0.81680083 38.513683 2.7421207
-0.80841488 38.579494 2.8111393
-0.80231231 38.643291 2.8822241
-0.79284292 38.713318 2.9641237
-0.78152692 38.784679 3.0497363
-0.77330971 38.847416 3.1267343
-0.85589135 38.853497 3.1771157
-0.76191938 38.307213 2.4967155
-0.7535702 38.375088 2.567101
-0.7442224 38.438171 2.6310096
-0.73472106 38.501324 2.6949165
-0.72692233 38.568893 2.7651198
-0.71965635 38.633759 2.834702
-0.70955479 38.703819 2.913274
-0.69718218 38.774479 2.9955137
-0.68703771 38.841789 3.0760109
-0.6773017 38.298481 2.4522429
-0.67041606 38.367268 2.5242503
-0.66444796 38.434147 2.5938897
-0.65504152 38.498203 2.6585195
-0.64597917 38.56414 2.7258229
-0.63680488 38.627758 2.7917402
-0.62707269 38.695431 2.8650494
-0.61645532 38.763424 2.9425097
-0.60543674 38.832874 3.0239778
-0.59621179 38.292522 2.4117274
-0.59610271 38.896358 3.1005428
-0.67787242 38.903915 3.1522279
-0.58852464 38.360256 2.4831774
-0.58204752 38.426735 2.551594
-0.57222778 38.492214 2.61759
-0.56253678 38.554939 2.680356
-0.55353224 38.616352 2.7427559
-0.54473668 38.684765 2.8148487
-0.53565884 38.753071 2.8906932
-0.52541977 38.820751 2.9690981
-0.51672399 38.885296 3.0463071
-0.50586158 38.346531 2.4341474
-0.50784922 38.951946 3.1282716
-0.58567655 38.963638 3.1844473
-0.49910951 38.416817 2.5064721
-0.4904702 38.486507 2.5770903
-0.48127857 38.548504 2.6386297
-0.47226393 38.608704 2.6989646
-0.46159574 38.674141 2.7650876
-0.45200726 38.740585 2.8361063
-0.442599 38.808872 2.913686
-0.43458974 38.878044 2.9959936
-0.42596859 38.944008 3.076314
-0.42148998 38.340466 2.3916073
-0.41287383 38.408138 2.4607127
-0.40471399 38.473434 2.5263474
-0.39674592 38.534401 2.5870357
-0.38798752 38.600136 2.6526854
-0.37742999 38.667927 2.7203996
-0.36864391 38.733452 2.7890015
-0.35871854 38.797386 2.8592999
-0.34934109 38.865875 2.9390507
-0.34106687 38.931606 3.0183835
-0.33052835 38.999928 3.1025038
-0.41497877 39.010197 3.1589391
-0.3317309 38.399044 2.4156079
-0.32303849 38.464588 2.4810796
-0.31552365 38.528439 2.5450528
-0.30718592 38.595314 2.6114728
-0.29694071 38.660225 2.6758289
-0.28733471 38.725063 2.7423434
-0.27591953 38.789814 2.8114533
-0.26482946 38.860905 2.8925517
-0.25647101 38.928959 2.9741023
-0.24723469 38.995911 3.0561712
-0.24066064 38.455894 2.4350913
-0.23265216 38.521221 2.5003667
-0.22499548 38.585403 2.5642414
-0.21528289 38.649292 2.6272924
-0.20603615 38.713715 2.6925676
-0.19502625 38.780888 2.7635841
-0.18368283 38.851025 2.8422527
-0.17451577 38.918415 2.9216597
-0.16568652 38.985176 3.0024879
-0.15813948 38.445477 2.3879535
-0.14824826 38.51173 2.4533036
-0.14168224 38.574886 2.5162795
-0.13320506 38.64011 2.58077
-0.12495846 38.703625 2.6444709
-0.11550149 38.772472 2.7168474
-0.10387849 38.841099 2.7924874
-0.092226766 38.906372 2.8672822
-0.082710825 38.97147 2.9444482
-0.066078626 38.499378 2.4044487
-0.058754869 38.562958 2.4671879
-0.04945685 38.628445 2.5311537
-0.041326858 38.692467 2.5946248
-0.032959182 38.761723 2.6660223
-0.023322377 38.830791 2.7414923
-0.012763159 38.897434 2.8175802
-0.002944574 38.961094 2.8910599
0.0041428348 39.030231 2.9755096
-0.076438084 39.040627 3.0319116
0.025549056 38.557201 2.425091
0.033552095 38.622242 2.4889934
0.041751243 38.685154 2.5510137
0.05049479 38.750916 2.6167514
0.058484461 38.821075 2.6913478
0.068001352 38.890541 2.7705665
0.078248471 38.955612 2.8454213
0.087535612 39.02272 2.9250605
0.10725393 38.54845 2.3834357
0.11476009 38.613579 2.4468594
0.12360603 38.677567 2.5091751
0.13258789 38.741581 2.5717874
0.14185669 38.809303 2.6411955
0.15272965 38.876701 2.7155261
0.16305247 38.942856 2.7919188
0.17160936 39.010445 2.871702
0.19692911 38.610451 2.4115729
0.20654337 38.671421 2.4700186
0.21432693 38.732819 2.529804
0.22228572 38.801064 2.5986269
0.23131545 38.871258 2.6747763
0.24243928 38.939499 2.75372
0.25202072 39.005543 2.8321717
0.2892952 38.661064 2.4284866
0.29736456 38.724827 2.4897704
0.30524933 38.79649 2.5611677
0.31181917 38.865749 2.6360922
0.3223367 38.930775 2.7110076
0.33253393 38.994621 2.7880216
0.3705079 38.655159 2.3929498
0.37814325 38.719631 2.4547296
0.38607961 38.786716 2.5205667
0.3934263 38.851604 2.5885005
0.40504318 38.918995 2.6647706
0.41601542 38.987938 2.7480724
0.46058545 38.712654 2.4179008
0.46909064 38.777645 2.480819
0.47695595 38.842361 2.5466998
0.48751307 38.910828 2.6235881
0.4983013 38.979729 2.7069337
0.54244226 38.702934 2.3795619
0.55222332 38.767548 2.4403367
0.55877697 38.834427 2.5086
0.56909871 38.903431 2.5850058
0.58134311 38.972786 2.6681321
0.63599265 38.76321 2.407443
0.64204192 38.829136 2.473942
0.65140361 38.895374 2.5474732
0.66209096 38.963215 2.628598
0.67267287 39.028618 2.7080333
0.59266156 39.039139 2.7484224
0.72597778 38.821293 2.4372282
0.73495901 38.889763 2.5128748
0.7450943 38.957504 2.5945446
0.7558338 39.022503 2.6737266
0.80842149 38.812084 2.4028842
0.8172406 38.878983 2.473747
0.82710665 38.944874 2.552253
0.83828199 39.010857 2.6328158
0.90030944 38.869797 2.4384043
0.91167754 38.937614 2.5167081
0.92281371 39.005184 2.5991364
0.98305404 38.864414 2.4097502
0.99504113 38.931015 2.4838729
1.0067658 38.997028 2.5632076
1.0673985 38.854733 2.3766553
1.0783527 38.924332 2.4510849
1.0891433 38.991924 2.5313241
1.1593609 38.912884 2.413939
1.1693488 38.98312 2.4949937
1.2397337 38.906406 2.3832028
1.249886 38.973179 2.4579387
1.3324342 38.964405 2.4239986
1.3450361 39.032398 2.5054286
1.2624561 39.04018 2.5394161
1.4168792 38.959991 2.3978093
1.4273127 39.026981 2.4770422
1.5105493 39.019314 2.4465895
1.5963538 39.015152 2.418658
2.7094908 39.014622 2.4067998
2.7960234 39.01231 2.4244416
2.8812933 39.006886 2.439909
2.9734919 39.005489 2.4664235
3.1366386 38.933811 2.4338789
3.0649314 39.007637 2.4997926
3.2140563 38.863255 2.3841743
3.2238271 38.932014 2.466224
3.1513982 39.004738 2.5258696
3.301115 38.894157 2.4557729
3.2847662 38.965141 2.5294266
3.2351651 38.999374 2.5496986
3.3855414 38.91494 2.5169578
3.3258054 38.9963 2.5806298
3.380301 38.793682 2.3933918
3.3921204 38.86142 2.4653695
3.4717679 38.793133 2.4448519
3.4794791 38.865501 2.5156028
3.470161 38.933273 2.5774956
3.4149239 38.994263 2.616112
3.5516622 38.726742 2.4383738
3.5584431 38.886013 2.5794725
3.5536237 38.948189 2.6357358
3.5030529 38.994846 2.6575773
3.5633504 38.794376 2.5011876
3.5677712 38.75647 2.4730539
3.5678198 38.693565 2.4223223
3.641655 38.898438 2.6400025
3.5931766 38.993645 2.7021835
3.6450529 38.835331 2.5875366
3.6433012 38.728634 2.4994478
3.6361046 38.667419 2.4467738
3.6275592 38.602589 2.3909676
3.717854 38.60173 2.4499574
3.7076485 38.533909 2.3902068
3.7286692 38.668724 2.5091414
3.7248387 38.855194 2.654984
3.6753566 38.928513 2.6868238
3.7284086 38.728642 2.555546
3.7278109 38.791458 2.604594
3.7666724 38.929195 2.7443237
3.6863921 38.997074 2.7569978
3.8012567 38.535645 2.4527452
3.7888794 38.468052 2.3911943
3.8086052 38.62328 2.526299
3.8063362 38.80994 2.6712217
3.8063962 38.872757 2.7217312
3.8084428 38.747372 2.6233959
3.8071554 38.686581 2.574842
3.8588901 38.931087 2.8036201
3.7768857 38.995251 2.8088419
3.8825755 38.470924 2.454479
3.8707094 38.404247 2.3967359
3.891011 38.572731 2.5407128
3.8901019 38.827358 2.7399108
3.8901567 38.763718 2.6898434
3.8916976 38.698536 2.6401634
3.8898795 38.63702 2.5907774
3.9403214 38.865379 2.8032169
3.9479136 38.931496 2.860106
3.8692904 38.997002 2.8650155
3.9583602 38.343895 2.4123347
3.9659095 38.406593 2.4620366
3.9685216 38.470654 2.5119398
3.9680781 38.596157 2.6108208
3.9700689 38.656307 2.6593289
3.9695868 38.781498 2.7565162
3.970135 38.717556 2.707011
3.968807 38.53204 2.5601265
4.0322742 38.86689 2.8644996
4.0225573 38.800125 2.8065455
4.039 38.932419 2.9202926
3.9560344 38.995911 2.9171588
4.0426679 38.304653 2.4434388
4.0434546 38.367817 2.487289
4.0450101 38.428421 2.5323646
4.0463738 38.55228 2.6288769
4.0477438 38.615475 2.6793933
4.0455542 38.489632 2.5792699
4.0499778 38.737736 2.7763119
4.0492954 38.67524 2.727217
4.1164651 38.800747 2.8712976
4.1077642 38.734657 2.813417
4.1245708 38.868416 2.9292307
4.1178579 38.261017 2.4685366
4.1264396 38.947178 2.9923818
4.0455141 38.995438 2.9747109
4.1206241 38.321457 2.5095856
4.1226344 38.382999 2.5535271
4.1238804 38.445492 2.5996459
4.1248035 38.508331 2.6485918
4.12462 38.575634 2.7005858
4.1266422 38.633972 2.7473288
4.199892 38.737305 2.8802347
4.1910963 38.672905 2.8224921
4.2025208 38.840305 2.9634554
4.1966448 38.275784 2.5357914
4.2000976 38.335827 2.5766685
4.2011051 38.398869 2.620822
4.2010589 38.463966 2.6684542
4.2037177 38.904331 3.0147846
4.2007661 38.531681 2.7198045
4.2021003 38.59201 2.7677517
4.205121 38.966885 3.0637534
4.1271801 39.009048 3.0411582
4.2798877 38.670555 2.8840563
4.2729945 38.607208 2.830333
4.268259 38.233402 2.5652957
4.2734852 38.293301 2.6044855
4.2821679 38.731117 2.9342427
4.2773142 38.354256 2.6459968
4.2554688 38.479069 2.7193727
4.2644229 38.543137 2.7751276
4.2481451 38.416798 2.6674523
4.2803078 38.860016 3.0361118
4.2797785 38.796787 2.9852567
4.281446 38.922352 3.0861619
4.2827406 38.983097 3.1331799
4.2041669 39.02964 3.1123955
4.3404007 38.417042 2.7384639
4.329505 38.353256 2.685791
4.3493314 38.479652 2.7909098
4.3556685 38.569313 2.8624675
4.3578825 38.627338 2.9081964
4.356926 38.817726 3.0590096
4.3559947 38.757141 3.0096364
4.3576322 38.691288 2.9572966
4.3563256 38.878864 3.1074231
4.3568234 38.939327 3.1557376
4.4270673 38.357002 2.7673376
4.4179111 38.292477 2.7196331
4.4304552 38.461525 2.8415108
4.435441 38.580879 2.9311521
4.43187 38.524734 2.8878703
4.4349561 38.7705 3.079006
4.4365125 38.705391 3.0276461
4.4316373 38.836189 3.1302226
4.4366093 38.641792 2.9776037
4.4849024 38.230831 2.7421391
4.4917107 38.288498 2.7805331
4.4987111 38.353313 2.8251274
4.5057697 38.477352 2.9132566
4.5025411 38.416409 2.8694222
4.4512944 38.547474 2.9190905
4.5118651 38.72702 3.1016753
4.5094085 38.790924 3.1528912
4.5081482 38.538799 2.9577429
4.4665236 38.676998 3.0273542
4.5538692 38.617767 3.0505326
4.5588651 38.680759 3.1026602
4.5604954 38.251987 2.8198695
4.5671744 38.31776 2.8634005
4.5716023 38.379467 2.9041629
4.575314 38.438107 2.9445591
4.5787129 38.498714 2.9869726
4.581686 38.560066 3.0307176
4.569603 38.745316 3.1629379
4.648345 38.619968 3.1294901
4.6394496 38.553207 3.0730844
4.6575046 38.706367 3.2043197
4.632741 38.278732 2.8990626
4.6392627 38.339481 2.9388013
4.6454062 38.398308 2.9784319
4.6497846 38.459167 3.0194132
4.6977601 38.297001 2.9661486
4.7060618 38.361053 3.0078576
4.725596 38.492477 3.10358
4.7163291 38.427101 3.0550048
4.7703133 38.260998 3.0122414
4.7865372 38.380169 3.0889566
4.7796474 38.319111 3.0502877
4.793005 38.436047 3.1270676
4.7295589 38.603642 3.1854661
4.7990074 38.494663 3.1694961
4.8439326 38.278847 3.0898793
4.8508987 38.338703 3.1266217
4.8575621 38.396893 3.1644189
4.9080157 38.245026 3.1349869
-3.1597795 38.266022 3.9214282
-3.2347088 38.278175 4.0168681
-3.0830402 38.25275 3.8277898
-2.9919572 38.311562 3.8459649
-3.072006 38.324104 3.9425731
-2.9095504 38.30022 3.7517602
-2.8978443 38.372181 3.8681464
-2.9786661 38.386417 3.9731503
-2.8290508 38.287502 3.6591098
-2.8190782 38.356602 3.7668099
-2.8070199 38.425426 3.8810439
-2.8855054 38.442799 3.9930279
-2.7492926 38.274563 3.569052
-2.7402694 38.340645 3.66803
-2.7289155 38.409348 3.776844
-2.7156582 38.481907 3.9015641
-2.7921586 38.494133 4.0045309
-2.6684535 38.260868 3.4790685
-2.6585722 38.327267 3.5742817
-2.6472037 38.398659 3.6824608
-2.6362202 38.470989 3.8037262
-2.6223528 38.542076 3.9327154
-2.6997156 38.558456 4.0473366
-2.589258 38.248325 3.3957837
-2.5790246 38.31712 3.4915178
-2.5682189 38.391644 3.6021876
-2.5580857 38.461349 3.7143936
-2.5450397 38.526291 3.8259225
-2.4994979 38.305954 3.4090524
-2.4889195 38.377434 3.5121651
-2.4789591 38.447182 3.6206362
-2.4679506 38.514164 3.7308974
-2.4531033 38.586617 3.8601036
-2.5279932 38.600231 3.9631379
-2.4209301 38.293911 3.3279018
-2.4096448 38.363476 3.4231093
-2.3996418 38.434471 3.5295742
-2.3895822 38.503475 3.6399403
-2.3759222 38.573483 3.7593219
-2.3596952 38.643887 3.8910458
-2.4361207 38.656693 3.9960346
-2.3428621 38.284885 3.2534502
-2.3330479 38.351353 3.3412654
-2.3224006 38.420998 3.4418874
-2.310595 38.49115 3.548635
-2.2978287 38.560642 3.6622436
-2.2841043 38.631279 3.7903006
-2.269259 38.706406 3.9374261
-2.3450749 38.72089 4.0460777
-2.2547281 38.336033 3.2584524
-2.2446585 38.408707 3.3597026
-2.2319822 38.477085 3.4595501
-2.2195992 38.544601 3.5633049
-2.2068403 38.616013 3.6871746
-2.1912632 38.690235 3.8263848
-2.1637392 38.398605 3.2865787
-2.15151 38.465469 3.3820035
-2.1397784 38.533955 3.4832554
-2.1282086 38.604588 3.5975244
-2.11443 38.679008 3.7306397
-2.1000319 38.747929 3.8614619
-2.1756701 38.762444 3.9664154
-2.0821869 38.388409 3.2174556
-2.0698647 38.454792 3.310919
-2.0590062 38.524803 3.4124207
-2.0493209 38.592396 3.514303
-2.0375435 38.66531 3.6362982
-2.0240262 38.734795 3.7620192
-1.8539481 38.781975 3.7110393
-1.9887979 38.444225 3.2437384
-1.9778074 38.51442 3.3430388
-1.968588 38.580879 3.4398544
-1.9588503 38.651962 3.5503557
-1.9458712 38.722172 3.6696784
-1.8972763 38.504353 3.2755227
-1.8867271 38.569782 3.3675697
-1.8791924 38.636921 3.46803
-1.8684871 38.708099 3.5814183
-1.8048255 38.554905 3.2912111
-1.7977362 38.625069 3.3930602
-1.7885275 38.696194 3.5018058
-1.7748456 38.768719 3.6214199
-1.6809515 38.83139 3.6682253
-1.4942665 38.958054 3.7702754
-1.7251691 38.546864 3.2279713
-1.7166885 38.619675 3.3303711
-1.707618 38.686245 3.4287488
-1.6943642 38.75423 3.5349443
-1.6380838 38.60844 3.2635891
-1.6278356 38.673729 3.3547237
-1.6135156 38.739346 3.4515021
-1.5986291 38.815697 3.5780559
-1.5076934 38.877228 3.6262367
-1.5467699 38.662632 3.2858701
-1.5350919 38.729877 3.382
-1.5205371 38.805351 3.5011101
-1.4632772 38.65295 3.2207406
-1.453794 38.723694 3.3190541
-1.4415751 38.79488 3.426825
-1.4290605 38.863564 3.5414486
-1.4152102 38.93961 3.67413
-1.2445365 38.983528 3.6247625
-0.99471784 39.018856 3.5150909
-1.372587 38.711052 3.2512364
-1.3620518 38.778019 3.3460579
-1.3485637 38.847542 3.4527626
-1.3337004 38.921124 3.5773857
-1.279301 38.767578 3.2812045
-1.2686143 38.837105 3.3811367
-1.256829 38.909142 3.4986937
-1.198422 38.761154 3.229804
-1.1905956 38.826378 3.3183827
-1.1799419 38.897095 3.4258595
-1.1673661 38.97089 3.5472331
-1.1097603 38.817772 3.2634683
-1.1004167 38.887722 3.3628075
-1.087859 38.959 3.4724655
-1.0273286 38.810226 3.2097559
-1.0189463 38.87701 3.3000379
-1.0072284 38.948345 3.4019616
-0.93704623 38.867184 3.2392888
-0.92786485 38.936234 3.3346267
-0.91623259 39.007648 3.4405034
-0.84601438 38.92083 3.265172
-0.83484101 38.994495 3.3678632
-0.76294225 38.910275 3.2054555
-0.75168735 38.982372 3.3004036
-0.66671193 38.974213 3.2419562
-0.57482773 39.031776 3.2733471
-0.65567434 39.046246 3.3396668
-0.49689353 39.019928 3.2143993
4.4146409 38.940098 3.200393
4.3249211 38.999981 3.1782374
4.4980111 38.875568 3.214021
4.50668 38.981781 3.3056798
4.4199247 39.003983 3.2539287
4.580008 38.810326 3.2252352
4.5829868 38.874535 3.2807686
4.6577435 38.76907 3.255408
4.656507 38.832146 3.306566
4.5812755 38.940784 3.3331218
4.6552691 38.896854 3.3585341
4.6566706 38.959057 3.4089425
4.5818744 39.00526 3.3833146
4.7291784 38.854008 3.3856976
4.7289066 38.918182 3.4372761
4.7309937 38.787491 3.3327434
4.7285681 38.979866 3.4853299
4.6571279 39.020782 3.4569488
4.7299166 38.728531 3.2840097
4.729547 38.669178 3.2361751
4.7992444 38.881264 3.4667327
4.7994227 38.942024 3.5158901
4.7988839 38.816265 3.4135332
4.8017302 38.624588 3.2644684
4.7998056 38.686649 3.3106017
4.8014522 38.559025 3.2160704
4.7999768 38.747795 3.3591449
4.8646212 38.456318 3.2057581
4.8625507 38.816742 3.4668858
4.8743019 38.706886 3.3891098
4.8691211 38.52013 3.2509694
4.8712616 38.882427 3.528379
4.872323 38.959415 3.5921917
4.7978349 39.01482 3.5715716
4.872108 38.648727 3.3439474
4.8707542 38.587059 3.2983344
4.915225 38.304413 3.1717007
4.9215159 38.364479 3.2088363
4.9460211 38.792625 3.5179811
4.947011 38.726105 3.4665792
4.9345078 38.482849 3.2898016
4.9282975 38.423439 3.2485194
4.9381781 38.54443 3.3320549
4.9423523 38.603443 3.374433
4.9442744 38.921745 3.6225464
4.9451947 38.858379 3.5704322
4.9451952 38.663284 3.4187851
4.9437017 38.985046 3.6734118
4.8718834 39.023746 3.6423714
4.9836388 38.324081 3.2517276
4.9914632 38.384159 3.2908831
4.9972277 38.444813 3.3304811
5.0028677 38.506939 3.3728895
5.0090289 38.566273 3.4142504
5.0125146 38.62793 3.4574692
5.0172343 38.87672 3.6510239
5.016387 38.938904 3.7006283
5.0169282 38.815666 3.6015663
5.015408 38.689079 3.5025074
5.0165758 38.752865 3.5515506
5.0441523 38.286968 3.2977886
5.0512204 38.346825 3.3361876
5.0570049 38.408058 3.3754599
5.0636177 38.468441 3.4171062
5.0696726 38.526134 3.4566314
5.0740738 38.587234 3.499423
5.0776329 38.650471 3.5451257
5.0804076 38.711658 3.5908313
5.0834384 38.902031 3.7364757
5.0819845 38.967426 3.7875433
5.0130401 39.004669 3.751693
5.0826211 38.772511 3.6369145
5.0839295 38.838127 3.6873612
5.1082435 38.309624 3.387078
5.1149502 38.372047 3.4280665
5.1207781 38.432724 3.4700696
5.1254153 38.491348 3.5108581
5.1295605 38.552662 3.554647
5.1329899 38.617279 3.6004391
5.1363688 38.67696 3.6436574
5.1465349 38.924034 3.8258514
5.1466169 38.989048 3.8788888
5.0822396 39.028698 3.8384044
5.1430511 38.798737 3.7314584
5.1396403 38.735786 3.6863182
5.1451173 38.858891 3.7759407
5.1604242 38.275787 3.4478633
5.1664543 38.338139 3.4909556
5.1707335 38.399937 3.5345218
5.1744709 38.459423 3.5775805
5.1783834 38.52 3.6228726
5.1828346 38.583961 3.6697659
5.1894565 38.645523 3.7147386
5.1949916 38.705219 3.7546334
5.1986637 38.766541 3.7932136
5.2015858 38.826576 3.8332458
5.2028422 38.888779 3.8775575
5.2128539 38.305107 3.56411
5.214889 38.367218 3.606221
5.2178354 38.429188 3.6521931
5.2220531 38.492336 3.7000096
5.2265315 38.555191 3.7452741
5.2337728 38.614532 3.7864354
5.2408471 38.673008 3.8232782
5.2470326 38.733139 3.8606169
5.2520661 38.793068 3.8996336
5.2537818 38.854851 3.9420676
5.2038116 38.953266 3.9277384
5.2572403 38.278854 3.6436107
5.2578492 38.336994 3.6820772
5.2614012 38.399139 3.7299557
5.2659612 38.461899 3.7773101
5.2705917 38.52327 3.8195889
5.2766867 38.582104 3.8582754
5.282083 38.640015 3.8920758
5.2873435 38.700565 3.928102
5.2921896 38.762047 3.9692311
5.3032045 38.306141 3.7540042
5.3070307 38.368507 3.8008542
5.3112907 38.429729 3.8453434
5.3148975 38.491291 3.8883641
5.3202052 38.553432 3.9326847
5.3242812 38.613503 3.9695637
5.3505964 38.27269 3.8237171
5.3545146 38.336246 3.8716519
5.3575587 38.397434 3.916497
5.3591685 38.457474 3.9570811
5.4006567 38.302956 3.9393227
-3.8921382 38.257256 4.6495051
-3.9678466 38.269672 4.7471776
-3.8005104 38.312336 4.6490569
-3.8773451 38.325169 4.7480674
-3.7193966 38.294231 4.5363488
-3.7081602 38.36536 4.6475043
-3.7880716 38.380219 4.7511377
-3.6414516 38.280357 4.4325442
-3.6298101 38.352474 4.5485635
-3.6176794 38.419117 4.6534004
-3.6975248 38.432854 4.7528257
-3.5616691 38.266304 4.3252244
-3.5514622 38.338318 4.4461651
-3.5398057 38.407406 4.5594416
-3.5274775 38.479095 4.676125
-3.6051095 38.489574 4.7649546
-3.4848032 38.250896 4.2189512
-3.4733672 38.320583 4.3356094
-3.4599988 38.392014 4.4551864
-3.4465897 38.465832 4.5791807
-3.4336023 38.536423 4.6979146
-3.5142834 38.550236 4.7949076
-3.3931999 38.308651 4.2324042
-3.3811319 38.381275 4.3574562
-3.3680661 38.454384 4.4842658
-3.3543589 38.52425 4.6042218
-3.3404872 38.591541 4.7210073
-3.4190459 38.604576 4.8152022
-3.3125994 38.293854 4.1233864
-3.3006768 38.365776 4.2471776
-3.290616 38.440186 4.3825693
-3.2789924 38.512531 4.5126715
-3.2644727 38.582043 4.6359611
-3.2217116 38.349518 4.1367064
-3.2113564 38.422409 4.2706676
-3.1999698 38.494678 4.4037809
-3.1850834 38.566528 4.5340233
-3.1679039 38.642426 4.6741209
-3.2465684 38.65612 4.7691317
-3.1462562 38.335632 4.0357227
-3.1330228 38.408882 4.1673884
-3.1198642 38.482445 4.3033371
-3.1052079 38.553635 4.4351616
-3.089756 38.629246 4.5788779
-3.0750196 38.699463 4.7160439
-3.1536829 38.711727 4.8070989
-3.0568855 38.39846 4.0725245
-3.0417988 38.47086 4.2048631
-3.0279875 38.540546 4.3363218
-3.0133281 38.615662 4.4814801
-2.9965169 38.686642 4.6208959
-2.9756253 38.762096 4.7689776
-3.054455 38.772869 4.8572121
-2.9639149 38.458294 4.1025681
-2.949388 38.527061 4.2325869
-2.9341602 38.602421 4.3793616
-2.9179404 38.673122 4.5200624
-2.8988416 38.74934 4.6738954
-2.8710032 38.511063 4.1206269
-2.8556254 38.587585 4.2706356
-2.8407855 38.659523 4.4165683
-2.8222973 38.736759 4.5742965
-2.8022225 38.813808 4.7328329
-2.8776999 38.826984 4.8285537
-2.7763088 38.571495 4.1548181
-2.7628143 38.644707 4.3041997
-2.7453816 38.721016 4.4654818
-2.7268395 38.797199 4.62468
-2.6843982 38.633045 4.1965065
-2.6667588 38.706001 4.3478107
-2.6492195 38.778713 4.5021892
-2.6319163 38.854183 4.6674862
-2.709069 38.873199 4.7846222
-2.6050448 38.616951 4.078558
-2.5879195 38.68745 4.2219367
-2.553792 38.838783 4.5532804
-2.5113804 38.670097 4.102273
-2.3281755 38.799919 4.208374
-2.4212816 38.735332 4.1562324
-2.2532015 38.78223 4.0923738
5.2551627 38.919022 3.9915214
5.2026582 39.017872 3.9787233
5.1461296 39.052517 3.9293776
5.2959976 38.826191 4.0161638
5.2972851 38.889919 4.0676904
5.2554092 38.982288 4.0415025
5.3277478 38.674061 4.0082669
5.3312993 38.734776 4.0526571
5.333745 38.798435 4.1020403
5.2982211 38.95216 4.1183052
5.3350034 38.860344 4.1523337
5.3367953 38.922462 4.2016473
5.2998753 39.014496 4.1670632
5.2555823 39.043777 4.0904064
5.3621602 38.519657 4.0014873
5.3644743 38.582317 4.0448437
5.3669338 38.646427 4.091682
5.3697677 38.709427 4.1412139
5.3720293 38.772316 4.1922083
5.3737841 38.834167 4.241097
5.3762612 38.897068 4.2883067
5.3394361 38.985188 4.2476439
5.4031296 38.365658 3.9865434
5.4041843 38.428844 4.0320501
5.4058218 38.491779 4.0790577
5.4075356 38.552685 4.1257663
5.4095411 38.616665 4.176322
5.4107347 38.678402 4.2242923
5.4133048 38.741447 4.2721786
5.4168897 38.804226 4.3192167
5.380198 38.958263 4.3310719
5.4204364 38.867332 4.3654041
5.4229078 38.927094 4.4062257
5.3850918 39.016605 4.3705735
5.3441153 39.047066 4.292984
5.4465222 38.270218 4.0049982
5.4474931 38.331345 4.0510268
5.4480867 38.394402 4.1000113
5.4492111 38.460056 4.1538258
5.4497209 38.523743 4.2060366
5.4501357 38.587254 4.2590189
5.4498539 38.647766 4.3043723
5.451653 38.711426 4.3499694
5.4561243 38.774681 4.3960743
5.4607282 38.836143 4.4402885
5.4632497 38.89439 4.4796419
5.4254422 38.985271 4.4456744
5.4940882 38.303677 4.125227
5.4937696 38.364326 4.1735272
5.4935193 38.427563 4.2255373
5.4923258 38.491451 4.2772279
5.4928508 38.556393 4.3320212
5.4930153 38.617199 4.3782072
5.4937835 38.679695 4.4228158
5.4966869 38.74263 4.4687648
5.5012088 38.802845 4.5120211
5.4655943 38.952724 4.5204091
5.5055122 38.86446 4.5568476
5.5087891 38.926212 4.6023431
5.4689488 39.014061 4.5648117
5.4290538 39.046307 4.4872551
5.5381556 38.458389 4.348093
5.5400476 38.393452 4.2954206
5.5377865 38.524097 4.4024901
5.5379753 38.585976 4.4508071
5.541337 38.330811 4.2443461
5.541966 38.269993 4.1958556
5.5391831 38.648266 4.496459
5.5418158 38.710506 4.5425744
5.5449028 38.770241 4.5871544
5.5483427 38.833752 4.6351104
5.5514669 38.897564 4.6821051
5.5118179 38.987957 4.6491418
5.5841293 38.492531 4.4716811
5.5857825 38.428619 4.4190836
5.5833802 38.553093 4.5196633
5.587801 38.361744 4.3642316
5.576077 38.615131 4.5505934
5.5893302 38.299488 4.3138962
5.5815187 38.725586 4.6381707
5.5789151 38.670574 4.5951471
5.5827117 38.78521 4.6807036
5.5852122 38.842739 4.7239118
5.5543203 38.959248 4.7299938
5.5874467 38.900894 4.7671161
5.6285353 38.582851 4.6367998
5.6290841 38.52161 4.5878224
5.63062 38.64854 4.6896453
5.6333475 38.711231 4.7393985
5.6357951 38.773861 4.7872329
5.6311517 38.460598 4.5374379
5.6336288 38.394569 4.4820805
5.636992 38.327251 4.4269457
5.6777315 38.488041 4.6566415
5.675683 38.550171 4.7087221
5.6817608 38.427299 4.6045432
5.6767683 38.616196 4.7621098
5.6861978 38.360634 4.5461001
5.6881719 38.296223 4.4904175
5.7284932 38.459103 4.7255335
5.7255735 38.524231 4.7830873
5.7337718 38.393867 4.6666737
5.7385993 38.323708 4.6043096
5.793642 38.290234 4.663733
5.786386 38.35508 4.7233396
-4.7019873 38.251167 5.4480948
-4.7781253 38.264748 5.5602498
-4.6117516 38.306118 5.4351683
-4.688858 38.323826 5.5521178
-4.5352702 38.293293 5.3316798
-4.5222688 38.362621 5.427783
-4.5998325 38.373692 5.5341425
-4.4575758 38.277885 5.2290835
-4.4449987 38.344406 5.3167057
-4.4303331 38.414928 5.4153595
-4.5086155 38.430889 5.52596
-4.3783216 38.265427 5.1318216
-4.3670459 38.329163 5.2156587
-4.3525944 38.402607 5.3179321
-4.417881 38.483871 5.514154
-4.3380108 38.469685 5.4137435
-4.2461662 38.527279 5.4288149
-4.2351704 38.596859 5.5324712
-4.5867257 38.442299 5.6323977
-4.2962437 38.250648 5.0330763
-4.2863131 38.316399 5.1206527
-4.2717896 38.390652 5.2229052
-4.257535 38.459549 5.3243947
-4.2050028 38.307777 5.0338225
-4.1908379 38.376572 5.1283593
-4.1772003 38.445492 5.2319355
-4.1655045 38.517036 5.3440523
-4.1535811 38.587215 5.4518423
-4.1234703 38.294941 4.9404149
-4.1118565 38.364326 5.0382967
-4.098608 38.432354 5.1404982
-4.0853109 38.504353 5.252604
-4.0726395 38.577229 5.3664169
-4.0645275 38.647545 5.4760818
-4.1446209 38.651028 5.5474982
-4.0432072 38.281403 4.8417749
-4.0329008 38.349277 4.9412284
-4.0208521 38.41777 5.0432186
-4.006773 38.489925 5.155724
-3.9931877 38.565128 5.2759442
-3.983393 38.639744 5.3962431
-3.9710603 38.705589 5.4948559
-4.0515838 38.712494 5.5718331
-3.9547994 38.336212 4.8434949
-3.9421549 38.405819 4.9462824
-3.9282084 38.476551 5.0547938
-3.9135423 38.548252 5.1715698
-3.8995821 38.61998 5.2881031
-3.8863811 38.688419 5.3973184
-3.8755038 38.757721 5.5051007
-3.9592922 38.770294 5.5915332
-3.8640559 38.392696 4.8471203
-3.8501954 38.459526 4.947638
-3.8346868 38.529694 5.0594683
-3.8180263 38.600761 5.1772642
-3.8050222 38.672588 5.2971935
-3.7926652 38.745007 5.4147544
-3.7807798 38.812248 5.5201187
-3.7754009 38.445534 4.8497891
-3.7606091 38.515823 4.9604363
-3.7426324 38.588879 5.0812817
-3.7267468 38.661697 5.2050834
-3.7134397 38.736217 5.3285398
-3.7009521 38.803566 5.4393682
-3.6063025 38.858147 5.4569049
-4.0411153 38.779049 5.6681795
-3.6843565 38.504025 4.8648901
-3.6680129 38.578335 4.989203
-3.6499906 38.650166 5.1125569
-3.6339641 38.721077 5.2316885
-3.6195412 38.788132 5.3430529
-3.5917628 38.563278 4.8891969
-3.5743182 38.63361 5.0116801
-3.556535 38.704224 5.1342101
-3.5391834 38.774677 5.2514858
-3.5235374 38.847866 5.374567
-3.443922 38.840218 5.2969384
-3.4985337 38.61898 4.9137344
-3.4799249 38.69347 5.0468831
-3.4602621 38.766262 5.1708975
-3.4006586 38.679615 4.949523
-3.3807156 38.752018 5.077014
-3.3654754 38.829212 5.2146811
-3.3228617 38.664455 4.8511372
-3.3034117 38.735504 4.9796133
-3.2876165 38.813793 5.12324
-2.8553336 38.897434 4.9675198
-3.2304335 38.725689 4.8978233
-3.2127609 38.80048 5.0369897
-3.1336219 38.784512 4.9437981
-2.9518993 38.83778 4.91364
-2.7825906 38.887753 4.8840728
5.5878577 38.960903 4.8105297
5.5547667 39.019283 4.7746997
5.5129404 39.049175 4.6945605
5.6380172 38.83609 4.8341317
5.6398001 38.899288 4.8815737
5.63867 38.95858 4.9243774
5.5895996 39.013958 4.8552942
5.6784239 38.678741 4.8096695
5.6810942 38.742687 4.8566871
5.6829677 38.80381 4.9024019
5.6835432 38.867355 4.9513726
5.6830902 38.92989 5.0006595
5.6380992 39.024059 4.9777374
5.7259302 38.58749 4.8328629
5.7264495 38.646515 4.875031
5.7278705 38.708202 4.9210954
5.7287712 38.769897 4.9691896
5.7154593 38.845959 5.0029573
5.7274442 38.894421 5.0688076
5.681674 38.993122 5.0530834
5.7760768 38.802036 5.0932736
5.7765617 38.738445 5.0419383
5.7768784 38.486534 4.840476
5.7795086 38.420654 4.7836375
5.7751074 38.548336 4.8904958
5.7262325 38.959728 5.1237807
5.7747283 38.863705 5.1425047
5.7728481 38.929703 5.1976705
5.7240691 39.026505 5.1806221
5.6785159 39.056675 5.1053576
5.7751703 38.609165 4.9369116
5.7756667 38.673683 4.9886613
5.8221436 38.829479 5.210711
5.8212681 38.898048 5.2686672
5.770113 38.993019 5.2497325
5.823894 38.765991 5.1601777
5.8266425 38.512642 4.9543242
5.8290553 38.450615 4.9048648
5.825367 38.574978 5.0028191
5.8254399 38.637981 5.0521345
5.8249397 38.701019 5.1060748
5.8334131 38.385185 4.8463678
5.84165 38.318302 4.7821651
5.8186045 38.962994 5.3223424
5.8707709 38.861698 5.3332267
5.869483 38.926323 5.3867197
5.81635 39.026932 5.3750744
5.7674351 39.057072 5.3029761
5.8714666 38.795719 5.2788262
5.8727279 38.732887 5.2302251
5.8646622 38.65789 5.1512365
5.8722572 38.542305 5.0769901
5.8744812 38.479214 5.026535
5.8774705 38.417633 4.9754677
5.8833275 38.350758 4.9128971
5.8930693 38.285862 4.8492131
5.9154873 38.572212 5.1976576
5.9202795 38.63546 5.24687
5.9220624 38.82864 5.397192
5.9203091 38.892731 5.450417
5.8680129 38.992702 5.4421062
5.9231052 38.763405 5.3446922
5.9233456 38.700203 5.2966356
5.9140644 38.451733 5.1096187
5.914032 38.512642 5.1566153
5.9359879 38.342522 5.0762262
5.9463453 38.425476 5.1999874
5.9510241 38.485256 5.2409496
5.9550366 38.542156 5.2732739
5.9173217 38.960136 5.5075564
5.970356 38.858425 5.5170541
5.9658122 38.922729 5.5721502
5.9100189 39.019405 5.5513973
5.8655338 39.054436 5.4946651
5.9636688 38.602535 5.3138814
5.9726005 38.795475 5.4628639
5.9719625 38.729626 5.406086
5.9688182 38.666233 5.3584733
5.9596443 38.323395 5.1743393
5.9751263 38.399616 5.2947989
5.9791155 38.307411 5.2735281
5.9843221 38.458824 5.3291631
5.9848094 38.542984 5.3417511
5.9983001 38.588039 5.3839016
6.0086327 38.642677 5.4240441
6.008039 38.767185 5.5103383
6.0174541 38.826733 5.5870404
6.009469 38.708836 5.4647408
6.0011439 38.287064 5.3758945
6.0032315 38.375301 5.3948908
6.0067811 38.463932 5.3955698
6.0287457 38.49025 5.4538813
6.0405617 38.554428 5.477406
6.0205054 38.290581 5.4614792
6.0368667 38.436043 5.4929218
6.0318022 38.351112 5.4975181
6.0577865 38.667366 5.5532951
6.0618596 38.731365 5.6068144
6.0536027 38.6063 5.5194387
6.0588207 38.465038 5.5509925
6.0670667 38.405571 5.5956421
6.0608559 38.32407 5.5974865
6.0731692 38.520954 5.5754967
6.0839372 38.57843 5.6023312
-5.3439097 38.304817 6.3223109
-5.2642927 38.288731 6.2025623
-5.2553401 38.358074 6.2774158
-5.3341942 38.371761 6.3933492
-5.4211841 38.319878 6.4469647
-5.1801505 38.275078 6.0804
-5.1720295 38.343143 6.1579432
-5.1611304 38.406681 6.2319531
-5.2430305 38.423111 6.3468027
-5.0985184 38.259178 5.9547815
-5.0892529 38.32489 6.0326414
-5.0803199 38.391151 6.118753
-5.1502433 38.47263 6.3133931
-5.0699158 38.460743 6.2097297
-5.0603075 38.538353 6.3176179
-5.137537 38.545654 6.4114819
-5.2322011 38.488907 6.424099
-5.0068107 38.307922 5.9073806
-4.9973335 38.375889 5.9989829
-4.9865699 38.447792 6.0952792
-4.9783077 38.525024 6.2086916
-5.0514975 38.61134 6.4314303
-4.9294877 38.293438 5.7895021
-4.9198375 38.362885 5.8862305
-4.9084921 38.432991 5.9824057
-4.8991032 38.509045 6.090672
-4.8528986 38.277718 5.6703653
-4.8418975 38.348328 5.7706099
-4.8309398 38.417793 5.8687744
-4.8207583 38.493454 5.9774084
-4.7656112 38.337685 5.6632285
-4.7542386 38.404339 5.758812
-4.7432847 38.476509 5.862802
-4.677495 38.390305 5.6488266
-4.6650186 38.459377 5.7468257
-4.132658 38.719078 5.6459589
6.0125046 38.893475 5.6462116
5.9599395 38.989567 5.6321297
6.0057149 38.960167 5.7061777
6.0497928 38.852127 5.6922054
6.0504942 38.925941 5.7765927
5.997787 39.025536 5.7670054
5.9526391 39.057594 5.6963201
6.0603423 38.793613 5.658556
6.0996504 38.829594 5.7928519
6.1012468 38.761829 5.7348733
6.0961542 38.89534 5.8506646
6.0435452 38.991009 5.8348851
6.0941796 38.638062 5.6390138
6.0855193 38.452499 5.6355319
6.1001034 38.700195 5.6877079
6.0971956 38.374355 5.696373
6.090807 38.297291 5.6914268
6.1050053 38.496212 5.6776395
6.1182342 38.554642 5.7048826
6.1137743 38.289204 5.7590113
6.0914297 38.961201 5.909411
6.1411452 38.862213 5.9192219
6.1396961 38.929523 5.9782019
6.0864758 39.027382 5.9696913
6.0370922 39.058174 5.8987222
6.1281223 38.612717 5.7375631
6.1412096 38.797081 5.8650403
6.1211839 38.41647 5.7530961
6.1295695 38.337105 5.7988844
6.1378016 38.729908 5.8107986
6.1347504 38.671589 5.7735457
6.1353617 38.472889 5.7800956
6.1489496 38.530453 5.8058224
6.1470842 38.38681 5.8379536
6.158639 38.588852 5.8346
6.164166 38.304142 5.9003301
6.169538 38.647816 5.8684053
6.163836 38.445446 5.8742328
6.1777115 38.706192 5.9056888
6.1863093 38.830418 5.9916487
6.1870799 38.893822 6.0408859
6.138124 38.997547 6.0397882
6.1834922 38.768826 5.9482555
6.1802297 38.35487 5.9400582
6.1765127 38.50301 5.8994727
6.1904812 38.561871 5.9275804
6.1942515 38.419201 5.9702969
6.2016068 38.277645 6.0043325
6.1959391 38.652462 5.9452796
6.2072148 38.477509 5.9955382
6.2130985 38.335587 6.0346317
6.2229872 38.7379 6.0298719
6.2291436 38.798477 6.0685759
6.1881657 38.959106 6.0972972
6.2327313 38.861897 6.1119628
6.2348275 38.926701 6.1632333
6.18571 39.021732 6.1502442
6.132916 39.060814 6.0937557
6.2154698 38.572681 6.0024972
6.2259793 38.391438 6.0624447
6.2347898 38.596127 6.0581398
6.2459621 38.652924 6.0865335
6.2310457 38.487808 6.0643029
6.2481012 38.308769 6.1230845
6.2579312 38.712879 6.1191449
6.2493367 38.404724 6.1265607
