# .PCD v0.7 - Point Cloud Data file format
VERSION 0.7
FIELDS x y z
SIZE 4 4 4
TYPE F F F
COUNT 1 1 1
WIDTH 946
HEIGHT 1
VIEWPOINT 0 0 0 1 0 0 0
POINTS 946
DATA ascii
5.09281253814697 31.921875 6.23999977111816
5.09281253814697 31.8700008392334 6.30343770980835
-3.98562502861023 33.0281257629395 4.63124990463257
-3.9840624332428 33.0778121948242 4.55499982833862
-3.98000001907349 33.1271858215332 4.48000001907349
-3.97562503814697 33.177188873291 4.40437507629395
-3.97343754768372 33.2275009155273 4.34093761444092
-3.97281241416931 33.2796859741211 4.28499984741211
-3.97218751907349 33.3321876525879 4.2350001335144
-3.97218751907349 33.3831253051758 4.17687511444092
-3.97000002861023 33.4359359741211 4.12312507629395
-3.96937489509583 33.4900016784668 4.08125019073486
-3.96875 33.5446891784668 4.04156255722046
-3.96749997138977 33.5984382629395 3.99781250953674
-3.96531248092651 33.6540641784668 3.95624995231628
-3.96312499046326 33.7075004577637 3.91281247138977
-3.96281242370605 33.7621879577637 3.87312507629395
-3.96187496185303 33.8156242370605 3.83124995231628
-3.96031260490417 33.8706245422363 3.79343748092651
-3.95843744277954 33.9259376525879 3.75937509536743
-3.95875000953674 33.981876373291 3.72437500953674
-3.95687508583069 34.0349998474121 3.68125009536743
-3.95468759536743 34.0881233215332 3.63343739509583
-3.9528124332428 34.1428108215332 3.59656238555908
-3.95031261444092 34.1993751525879 3.56312489509583
-3.94968748092651 34.2537498474121 3.52843761444092
-3.94781255722046 34.3059387207031 3.48812508583069
-3.94624996185303 34.3606262207031 3.44062495231628
-3.94718742370605 34.4153137207031 3.40406250953674
-3.94624996185303 34.4703140258789 3.37124991416931
-3.94656252861023 34.5237503051758 3.33531260490417
-3.9453125 34.5800018310547 3.30062508583069
-3.94468760490417 34.635311126709 3.2653124332428
-3.94312500953674 34.6903114318848 3.23562502861023
-3.94281244277954 34.7459373474121 3.20656251907349
-3.94281244277954 34.8043746948242 3.18656253814697
-3.94187498092651 34.861873626709 3.16687488555908
-3.93875002861023 34.9174995422363 3.14374995231628
-3.93812489509583 34.9734382629395 3.11875009536743
-3.9378125667572 35.0325012207031 3.10031247138977
-3.93687510490417 35.0921859741211 3.0934374332428
-3.93812489509583 35.1512489318848 3.08937501907349
-3.94031238555908 35.2140617370605 3.09437489509583
-3.93968749046326 35.2746887207031 3.09562492370605
-3.93875002861023 35.3356246948242 3.09531259536743
-3.94000005722046 35.3971862792969 3.10218739509583
-3.93968749046326 35.4599990844727 3.10625004768372
-3.93843746185303 35.5231246948242 3.125
-3.93843746185303 35.588436126709 3.14906239509583
-3.93968749046326 35.6543731689453 3.17562508583069
-3.94093751907349 35.7203140258789 3.20718741416931
-3.94218754768372 35.7853126525879 3.23281240463257
-3.94156241416931 35.8503112792969 3.25437498092651
-3.94250011444092 35.9156265258789 3.27937507629395
-3.94406247138977 35.981876373291 3.30281257629395
-3.94374990463257 36.0475006103516 3.33124995231628
-3.9449999332428 36.1137504577637 3.35999989509583
-3.9449999332428 36.1828117370605 3.40906238555908
-3.9449999332428 36.2546882629395 3.47031259536743
-3.9456250667572 36.325626373291 3.52624988555908
-3.94718742370605 36.3968734741211 3.5859375
-3.94937491416931 36.4681243896484 3.64249992370605
-3.95000004768372 36.5400009155273 3.703125
-3.95062494277954 36.6124992370605 3.76500010490417
-3.95406246185303 36.6831245422363 3.81687498092651
-3.95562505722046 36.755313873291 3.87937498092651
-3.95687508583069 36.8278121948242 3.94812488555908
-3.95906257629395 36.9012489318848 4.00906229019165
-3.95937490463257 36.9775009155273 4.09093761444092
-3.95781254768372 37.0531234741211 4.17062520980835
-3.95624995231628 37.1287498474121 4.25562477111816
-3.95624995231628 37.2075004577637 4.34937477111816
-3.95781254768372 37.2849998474121 4.4381251335144
-3.95812511444092 37.3624992370605 4.53156232833862
-3.96000003814697 37.4409370422363 4.62187480926514
-3.96218752861023 37.5171890258789 4.7037501335144
-3.96000003814697 37.5953140258789 4.79187488555908
-3.95843744277954 37.6734390258789 4.88968753814697
-3.95968747138977 37.7546882629395 4.99562501907349
-3.9609375 37.8353118896484 5.09656238555908
-3.96562504768372 37.9118766784668 5.18281269073486
-3.96624994277954 37.9900016784668 5.27437496185303
5.09250020980835 31.8184375762939 6.37624979019165
5.09250020980835 31.7700004577637 6.45437479019165
5.09406232833862 31.7203121185303 6.53531265258789
5.09593772888184 31.6700000762939 6.61374998092651
5.09749984741211 31.6200008392334 6.69281244277954
5.09937477111816 31.5681247711182 6.76249980926514
5.10249996185303 31.515625 6.82312488555908
5.10375022888184 31.4631252288818 6.8834376335144
5.10281229019165 31.4121875762939 6.95093727111816
5.1021876335144 31.3603134155273 7.01593732833862
5.10312509536743 31.3075008392334 7.07843732833862
5.10500001907349 31.2537498474121 7.13500022888184
5.10562515258789 31.2018756866455 7.19218730926514
5.10656261444092 31.1481246948242 7.24656248092651
5.10750007629395 31.0946884155273 7.30562496185303
5.10750007629395 31.0409374237061 7.3665623664856
5.1100001335144 30.9903125762939 7.44312477111816
5.11250019073486 30.9403133392334 7.51781272888184
5.11281251907349 30.8921871185303 7.59625005722046
5.11218738555908 30.8428115844727 7.6881251335144
5.11156272888184 30.7953128814697 7.78937482833862
4.98062515258789 38.744686126709 3.81031250953674
4.98187494277954 38.674373626709 3.75999999046326
4.97875022888184 38.4581260681152 3.59281253814697
4.9771876335144 38.2468757629395 3.44000005722046
4.97749996185303 38.1756248474121 3.38875007629395
4.97625017166138 38.1062507629395 3.33843755722046
4.9771876335144 38.0390625 3.29781246185303
4.97687482833862 37.9703140258789 3.25874996185303
4.97531270980835 37.9021873474121 3.22125005722046
4.97437477111816 37.8346862792969 3.18624997138977
4.97312498092651 37.7675018310547 3.15468740463257
4.97281265258789 37.7000007629395 3.12156248092651
4.97249984741211 37.6334381103516 3.08500003814697
4.97218751907349 37.5675010681152 3.05281257629395
4.97093772888184 37.5018768310547 3.0231249332428
4.97218751907349 37.4343757629395 2.99125003814697
4.97249984741211 37.3659362792969 2.95187497138977
4.97218751907349 37.3003120422363 2.92437505722046
4.97031259536743 37.2346878051758 2.89312505722046
4.96968746185303 37.1678123474121 2.86062502861023
4.96999979019165 37.1003112792969 2.82906246185303
4.96999979019165 37.033748626709 2.79906249046326
4.96999979019165 36.9703140258789 2.77718758583069
4.96999979019165 36.90625 2.75468754768372
4.96875 36.838436126709 2.72718739509583
4.9681248664856 36.7728118896484 2.69812488555908
4.96906232833862 36.7078132629395 2.671875
4.9693751335144 36.6440620422363 2.64625000953674
4.96781253814697 36.5765609741211 2.61812496185303
4.96718740463257 36.5115623474121 2.59281253814697
-3.90343761444092 32.9690628051758 4.64031267166138
-3.90000009536743 33.0162506103516 4.55687522888184
-3.89750003814697 33.0665626525879 4.48468732833862
-3.89406251907349 33.1156234741211 4.4134373664856
-3.88968753814697 33.1659393310547 4.34124994277954
-3.88718748092651 33.2178115844727 4.28093767166138
-3.88468742370605 33.2706260681152 4.22749996185303
-3.88343739509583 33.3240623474121 4.18343734741211
-3.88437509536743 33.375 4.12874984741211
-3.88218760490417 33.427188873291 4.06937503814697
-3.88062500953674 33.4806251525879 4.02593755722046
-3.88031244277954 33.5356254577637 3.98687505722046
-3.87968754768372 33.5906257629395 3.94843745231628
-3.87937498092651 33.6468734741211 3.91281247138977
-3.87750005722046 33.7003135681152 3.87312507629395
-3.87656259536743 33.755313873291 3.83218741416931
-3.87374997138977 33.8096885681152 3.79124999046326
-3.87218761444092 33.8650016784668 3.75624990463257
-3.87031245231628 33.9196891784668 3.71875
-3.87031245231628 33.974063873291 3.67812490463257
-3.86875009536743 34.025936126709 3.63062500953674
-3.8675000667572 34.0800018310547 3.58406257629395
-3.86656260490417 34.1349983215332 3.54562497138977
-3.86312508583069 34.1903114318848 3.50906252861023
-3.86249995231628 34.2449989318848 3.47593760490417
-3.86187505722046 34.2978134155273 3.43906259536743
-3.85999989509583 34.3521881103516 3.3909375667572
-3.86031246185303 34.4071884155273 3.35531258583069
-3.8596875667572 34.4618759155273 3.31843757629395
-3.85999989509583 34.5149993896484 3.27874994277954
-3.85812497138977 34.5696868896484 3.24125003814697
-3.85750007629395 34.625 3.20812511444092
-3.85750007629395 34.6796875 3.17656254768372
-3.85718750953674 34.7350006103516 3.14374995231628
-3.85656261444092 34.7912483215332 3.11374998092651
-3.85468745231628 34.8493766784668 3.09375
-3.85281252861023 34.9053115844727 3.07218742370605
-3.8518750667572 34.9621887207031 3.05124998092651
-3.8518750667572 35.0203132629395 3.02937507629395
-3.8515625 35.0796890258789 3.02062511444092
-3.85249996185303 35.1384391784668 3.0159375667572
-3.85406255722046 35.2012481689453 3.01874995231628
-3.85249996185303 35.2612495422363 3.01781249046326
-3.85062503814697 35.3221893310547 3.01812505722046
-3.8518750667572 35.3834381103516 3.02656245231628
-3.85249996185303 35.4471893310547 3.03500008583069
-3.8518750667572 35.510311126709 3.05062508583069
-3.85218739509583 35.5743751525879 3.06656241416931
-3.85249996185303 35.6390609741211 3.08968758583069
-3.85437488555908 35.7068748474121 3.12843751907349
-3.85625004768372 35.7724990844727 3.15968751907349
-3.85468745231628 35.8378143310547 3.18249988555908
-3.85343742370605 35.9025001525879 3.20593738555908
-3.85468745231628 35.9678115844727 3.2262499332428
-3.85500001907349 36.0331268310547 3.25281238555908
-3.85687494277954 36.0999984741211 3.28031253814697
-3.85750007629395 36.1681251525879 3.32187509536743
-3.85718750953674 36.2381248474121 3.37843751907349
-3.85750007629395 36.3096885681152 3.43968749046326
-3.85843753814697 36.3809356689453 3.49812507629395
-3.85999989509583 36.4521865844727 3.55375003814697
-3.86031246185303 36.5234375 3.61031246185303
-3.86093759536743 36.5965614318848 3.67437505722046
-3.86343741416931 36.6674995422363 3.72968745231628
-3.86625003814697 36.7400016784668 3.79343748092651
-3.86843752861023 36.8121871948242 3.85625004768372
-3.87312507629395 36.8849983215332 3.91531252861023
-3.87406253814697 36.9603118896484 3.99906253814697
-3.87437510490417 37.036563873291 4.07593727111816
-3.87406253814697 37.1112518310547 4.15781259536743
-3.87312507629395 37.189998626709 4.25250005722046
-3.87406253814697 37.2675018310547 4.33937501907349
-3.87093758583069 37.3450012207031 4.43218755722046
-3.87062501907349 37.4228134155273 4.52718734741211
-3.87218761444092 37.5006256103516 4.61906242370605
-3.87281250953674 37.5793762207031 4.7103123664856
-3.87218761444092 37.6575012207031 4.80593729019165
-3.87093758583069 37.7378120422363 4.91312503814697
-3.87124991416931 37.8203125 5.02093744277954
-3.87625002861023 37.9006233215332 5.12375020980835
-3.87625002861023 37.9768753051758 5.21187496185303
-3.87968754768372 38.0562515258789 5.29874992370605
4.96750020980835 36.4474983215332 2.56968760490417
4.96875 36.3821868896484 2.54874992370605
4.96718740463257 36.3171882629395 2.52468752861023
4.96531248092651 36.2515640258789 2.49906253814697
4.96406269073486 36.1881256103516 2.48031258583069
4.96312522888184 36.1243743896484 2.46531248092651
4.96437501907349 36.0606231689453 2.44843745231628
4.96406269073486 35.997501373291 2.43281245231628
4.96218729019165 35.9343757629395 2.4140625
4.9609375 35.8699989318848 2.40374994277954
4.9615626335144 35.8081245422363 2.39374995231628
4.96062517166138 35.7465629577637 2.38468742370605
4.96062517166138 35.6828117370605 2.37218761444092
4.96000003814697 35.619686126709 2.35374999046326
4.9603123664856 35.5556259155273 2.33437490463257
4.96000003814697 35.4931259155273 2.32406258583069
4.9609375 35.4306259155273 2.31874990463257
4.96187496185303 35.369686126709 2.31843757629395
4.96000003814697 35.3090629577637 2.3121874332428
4.95874977111816 35.2453117370605 2.30218744277954
4.95968770980835 35.1843757629395 2.29531240463257
4.9603123664856 35.1231231689453 2.29187488555908
4.9603123664856 35.0625 2.29093742370605
4.9603123664856 35.0012512207031 2.29281258583069
4.9603123664856 34.942813873291 2.30062508583069
4.95812511444092 34.8846893310547 2.30968761444092
4.95781230926514 34.8246879577637 2.31468749046326
4.95812511444092 34.7628135681152 2.31625008583069
4.95843744277954 34.7028121948242 2.31812500953674
4.95937490463257 34.6453132629395 2.33124995231628
4.95937490463257 34.5871887207031 2.3434374332428
4.95843744277954 34.5281257629395 2.35249996185303
4.95968770980835 34.4700012207031 2.36374998092651
4.95937490463257 34.4103126525879 2.37343740463257
4.95781230926514 34.3534393310547 2.39343738555908
4.95781230926514 34.2971878051758 2.41687488555908
4.95968770980835 34.2400016784668 2.43187499046326
4.95906257629395 34.1828117370605 2.45906257629395
4.95937490463257 34.1259384155273 2.48093748092651
4.95968770980835 34.0696868896484 2.50375008583069
4.9603123664856 34.0128135681152 2.52968740463257
4.9615626335144 33.9553108215332 2.55406260490417
4.96250009536743 33.9000015258789 2.58062505722046
4.96250009536743 33.8446884155273 2.61031246185303
4.96187496185303 33.7881240844727 2.64531254768372
4.96124982833862 33.7331237792969 2.6800000667572
4.96281242370605 33.6784362792969 2.71250009536743
4.96281242370605 33.6231231689453 2.74468755722046
4.96281242370605 33.5681266784668 2.78218746185303
-3.81531238555908 32.9099998474121 4.65343761444092
-3.81593751907349 32.9578132629395 4.56562519073486
-3.8125 33.0056266784668 4.484375
-3.80937504768372 33.0556259155273 4.41281270980835
-3.80531239509583 33.1053123474121 4.34593772888184
-3.80124998092651 33.1575012207031 4.28625011444092
-3.79937505722046 33.2099990844727 4.23124980926514
-3.79625010490417 33.2625007629395 4.17656230926514
-3.79531240463257 33.3153114318848 4.13187503814697
-3.7965624332428 33.3659362792969 4.07718753814697
-3.79406261444092 33.4187507629395 4.02062511444092
-3.79343748092651 33.4734382629395 3.984375
-3.79281258583069 33.5296859741211 3.94781255722046
-3.79156255722046 33.5849990844727 3.91187500953674
-3.79218745231628 33.6399993896484 3.8746874332428
-3.79062509536743 33.6934356689453 3.83218741416931
-3.7893750667572 33.7490615844727 3.79437494277954
-3.78687500953674 33.8034362792969 3.75468754768372
-3.78468751907349 33.859375 3.7190625667572
-3.78312492370605 33.9128112792969 3.67718744277954
-3.78406238555908 33.9659385681152 3.63406252861023
-3.78375005722046 34.0184364318848 3.58718752861023
-3.78125 34.0731239318848 3.54187488555908
-3.77999997138977 34.1278114318848 3.50312495231628
-3.77593755722046 34.1824989318848 3.46468758583069
-3.77531242370605 34.236873626709 3.42750000953674
-3.77500009536743 34.2900009155273 3.38843750953674
-3.7731249332428 34.3431243896484 3.33718752861023
-3.77406239509583 34.3974990844727 3.29968738555908
-3.7731249332428 34.4521865844727 3.26062488555908
-3.7737500667572 34.5050010681152 3.21593761444092
-3.77218747138977 34.5584373474121 3.17531251907349
-3.77093744277954 34.6143760681152 3.14499998092651
-3.77125000953674 34.6684379577637 3.11249995231628
-3.76999998092651 34.7243766784668 3.07906246185303
-3.76781249046326 34.7799987792969 3.0465624332428
-3.76624989509583 34.8371887207031 3.02468752861023
-3.76656246185303 34.8928108215332 3.00062489509583
-3.76406240463257 34.9500007629395 2.98093748092651
-3.76312494277954 35.0081253051758 2.95875000953674
-3.76343750953674 35.0671882629395 2.94937491416931
-3.76500010490417 35.1256256103516 2.94374990463257
-3.76687502861023 35.1881256103516 2.9449999332428
-3.7653124332428 35.2493743896484 2.94812488555908
-3.76312494277954 35.310001373291 2.94906258583069
-3.76343750953674 35.3706245422363 2.9528124332428
-3.76437497138977 35.4346885681152 2.96406245231628
-3.76375007629395 35.497501373291 2.9762499332428
-3.76437497138977 35.5606231689453 2.98906254768372
-3.76343750953674 35.6256256103516 3.01125001907349
-3.7653124332428 35.6943740844727 3.05250000953674
-3.76749992370605 35.7599983215332 3.08500003814697
-3.76718759536743 35.8262481689453 3.11281251907349
-3.765625 35.8903121948242 3.1331250667572
-3.765625 35.9550018310547 3.15187501907349
-3.7659375667572 36.0206260681152 3.18062496185303
-3.76812505722046 36.0875015258789 3.20843744277954
-3.76937508583069 36.1549987792969 3.24718761444092
-3.76843738555908 36.2234382629395 3.29906249046326
-3.76968741416931 36.2949981689453 3.3590624332428
-3.77156257629395 36.3668746948242 3.4137499332428
-3.77250003814697 36.4375 3.46562504768372
-3.7734375 36.5074996948242 3.51843738555908
-3.77437496185303 36.5796890258789 3.57968759536743
-3.77468752861023 36.6506233215332 3.63562488555908
-3.77562499046326 36.724063873291 3.70156240463257
-3.77781248092651 36.7956237792969 3.76656246185303
-3.78218746185303 36.8681259155273 3.82625007629395
-3.78343749046326 36.9431266784668 3.90562510490417
-3.78656244277954 37.0196876525879 3.98187494277954
-3.7887499332428 37.0956268310547 4.06656265258789
-3.78968739509583 37.1737518310547 4.16093730926514
-3.78999996185303 37.2503128051758 4.24625015258789
-3.78593754768372 37.3274993896484 4.33750009536743
-3.78343749046326 37.4059371948242 4.43281269073486
-3.78406238555908 37.484375 4.52781248092651
-3.78656244277954 37.5625 4.61999988555908
-3.78687500953674 37.640625 4.71562480926514
-3.78468751907349 37.7209358215332 4.82343769073486
-3.78375005722046 37.8046875 4.93874979019165
-3.78656244277954 37.8875007629395 5.0540623664856
-3.78718757629395 37.9643745422363 5.14531230926514
-3.7893750667572 38.0421867370605 5.23281240463257
4.96374988555908 33.5149993896484 2.82375001907349
4.96500015258789 33.4628143310547 2.87781238555908
4.96562480926514 33.4084358215332 2.92499995231628
4.96500015258789 33.3556251525879 2.97093749046326
4.96406269073486 33.3037490844727 3.01937508583069
4.96531248092651 33.2528114318848 3.078125
4.96781253814697 33.2015609741211 3.14656257629395
4.96999979019165 33.1531257629395 3.21406245231628
4.96999979019165 33.1053123474121 3.29031252861023
4.96999979019165 33.0562515258789 3.37093758583069
4.97031259536743 33.0099983215332 3.45656251907349
4.97156238555908 32.9659385681152 3.55906248092651
4.96843767166138 32.9246864318848 3.68281245231628
5.00343751907349 32.6690635681152 5.89718770980835
5.00343751907349 32.6078109741211 5.90593767166138
5.00500011444092 32.5471878051758 5.91125011444092
5.0071873664856 32.4871864318848 5.9146876335144
5.00874996185303 32.4268760681152 5.92406272888184
5.0078125 32.3681259155273 5.94281244277954
5.00437498092651 32.3103141784668 5.97125005722046
5.00406265258789 32.2528114318848 5.99062490463257
5.00687503814697 32.1953125 6.02062511444092
5.00687503814697 32.1387481689453 6.0540623664856
5.00562477111816 32.0837516784668 6.09406232833862
5.00687503814697 32.0290641784668 6.14218759536743
5.00687503814697 31.9756240844727 6.19781255722046
5.00531244277954 31.9237499237061 6.25906229019165
5.00468730926514 31.8734378814697 6.33125019073486
5.00531244277954 31.8237495422363 6.41218757629395
5.0071873664856 31.7759380340576 6.49625015258789
5.01187515258789 31.7278118133545 6.58781242370605
5.01468753814697 31.6784381866455 6.67093753814697
5.01531267166138 31.6296882629395 6.75281238555908
5.01687479019165 31.5784378051758 6.828125
5.01906251907349 31.5271873474121 6.89437484741211
5.01781272888184 31.4740619659424 6.9524998664856
5.01718759536743 31.4231243133545 7.01656246185303
5.01781272888184 31.3718757629395 7.08312511444092
5.01968765258789 31.3193740844727 7.14375019073486
5.02124977111816 31.2649993896484 7.19812488555908
5.02156257629395 31.2128124237061 7.25750017166138
5.02062511444092 31.1593742370605 7.3118748664856
5.02062511444092 31.1056251525879 7.36999988555908
5.02250003814697 31.0524997711182 7.42812490463257
5.02531242370605 31.0018749237061 7.50406265258789
5.02874994277954 30.9506244659424 7.57937479019165
5.02937507629395 30.9021873474121 7.65999984741211
5.02750015258789 30.8528118133545 7.75156259536743
4.89687490463257 38.7999992370605 3.77687501907349
-3.72812509536743 32.9000015258789 4.59093761444092
-3.72531247138977 32.9481239318848 4.50906229019165
-3.72250008583069 32.997501373291 4.43562507629395
-3.72000002861023 33.0471878051758 4.36312484741211
-3.71718740463257 33.0968742370605 4.29593753814697
-3.71437501907349 33.1496887207031 4.23843765258789
-3.71218752861023 33.2024993896484 4.1868748664856
-3.70968747138977 33.2556266784668 4.13500022888184
-3.70843744277954 33.3090629577637 4.09156227111816
-3.71000003814697 33.3609390258789 4.04374980926514
-3.70937490463257 33.4150009155273 3.99718761444092
-3.71031260490417 33.4696884155273 3.95875000953674
-3.70906257629395 33.5250015258789 3.91937494277954
-3.70687508583069 33.5796890258789 3.88031244277954
-3.70624995231628 33.6343765258789 3.83968758583069
-3.70374989509583 33.6875 3.79281258583069
-3.70062494277954 33.7428131103516 3.75531244277954
-3.69812488555908 33.7978134155273 3.72000002861023
-3.69593739509583 33.854061126709 3.68562507629395
-3.6953125 33.9078140258789 3.64781260490417
-3.69593739509583 33.9618759155273 3.61124992370605
-3.69687509536743 34.0153121948242 3.56874990463257
-3.69687509536743 34.0693740844727 3.51874995231628
-3.6956250667572 34.122501373291 3.47218751907349
-3.69062495231628 34.1749992370605 3.42031240463257
-3.68968749046326 34.2281265258789 3.37937498092651
-3.68906259536743 34.2821884155273 3.34187507629395
-3.68624997138977 34.3349990844727 3.28968739509583
-3.68687510490417 34.388126373291 3.24812507629395
-3.68562507629395 34.4421882629395 3.20687508583069
-3.68531250953674 34.4949989318848 3.16000008583069
-3.68468761444092 34.5484390258789 3.12124991416931
-3.68406248092651 34.604061126709 3.08656239509583
-3.68312501907349 34.6578140258789 3.04812502861023
-3.68187499046326 34.7125015258789 3.01125001907349
-3.6800000667572 34.768123626709 2.97781252861023
-3.6796875 34.8246879577637 2.95156240463257
-3.68125009536743 34.8806266784668 2.92624998092651
-3.6793749332428 34.9381256103516 2.91125011444092
-3.67750000953674 34.9968757629395 2.89124989509583
-3.67750000953674 35.0553131103516 2.88062500953674
-3.67781257629395 35.1137504577637 2.8746874332428
-3.6793749332428 35.1765632629395 2.87656259536743
-3.67906260490417 35.2374992370605 2.87812495231628
-3.67718744277954 35.2975006103516 2.87718749046326
-3.67718744277954 35.3584365844727 2.87968754768372
-3.67750000953674 35.4221878051758 2.88875007629395
-3.67687511444092 35.4850006103516 2.90156245231628
-3.67718744277954 35.5481262207031 2.91750001907349
-3.67562508583069 35.6131248474121 2.93968749046326
-3.67718744277954 35.6812515258789 2.98125004768372
-3.6793749332428 35.7459373474121 3.0074999332428
-3.6796875 35.8121871948242 3.03218746185303
-3.67906260490417 35.8771858215332 3.0550000667572
-3.6793749332428 35.942813873291 3.08343744277954
-3.6800000667572 36.0087509155273 3.11218738555908
-3.68156242370605 36.0750007629395 3.13750004768372
-3.68218755722046 36.1421890258789 3.17468738555908
-3.68062496185303 36.2096862792969 3.21937489509583
-3.68125009536743 36.2803115844727 3.2734375
-3.68281245231628 36.3521881103516 3.33124995231628
-3.68531250953674 36.4221878051758 3.38031244277954
-3.68812489509583 36.4912490844727 3.4293749332428
-3.6871874332428 36.5625 3.48937511444092
-3.68593740463257 36.6334381103516 3.54406261444092
-3.68593740463257 36.7071876525879 3.60781240463257
-3.68843746185303 36.7796859741211 3.67468738555908
-3.69187498092651 36.8525009155273 3.73749995231628
-3.69281244277954 36.927188873291 3.81874990463257
-3.6953125 37.0028114318848 3.89531254768372
-3.69812488555908 37.0790634155273 3.9762499332428
-3.70093750953674 37.1559371948242 4.06218767166138
-3.70093750953674 37.2328109741211 4.15000009536743
-3.70093750953674 37.3106231689453 4.24531269073486
-3.70031261444092 37.390625 4.34531259536743
-3.70000004768372 37.4681243896484 4.44156265258789
-3.70000004768372 37.5456237792969 4.53031253814697
-3.69968748092651 37.6246871948242 4.62687492370605
-3.69812488555908 37.7046890258789 4.72968769073486
-3.69687509536743 37.7868766784668 4.84031248092651
-3.6956250667572 37.8678131103516 4.95156240463257
-3.69593739509583 37.9474983215332 5.05375003814697
-3.69812488555908 38.0271873474121 5.15468740463257
4.89499998092651 38.7281265258789 3.72531247138977
4.89375019073486 38.6575012207031 3.67406249046326
4.89468765258789 38.5868759155273 3.62062501907349
4.89375019073486 38.5149993896484 3.56156253814697
4.89406251907349 38.4431266784668 3.5078125
4.89281272888184 38.372501373291 3.45093750953674
4.89031267166138 38.3018760681152 3.39687490463257
4.890625 38.2321891784668 3.35374999046326
4.89156246185303 38.1603126525879 3.30218744277954
4.89031267166138 38.0903129577637 3.25187492370605
4.8899998664856 38.0228118896484 3.21312499046326
4.88968753814697 37.9546890258789 3.17687511444092
4.88781261444092 37.8856239318848 3.13499999046326
4.88718748092651 37.8181266784668 3.09812498092651
4.88718748092651 37.7518768310547 3.06874990463257
4.88656234741211 37.6840629577637 3.03437495231628
4.88562488555908 37.6190643310547 3.00281238555908
4.88656234741211 37.5525016784668 2.97093749046326
4.88500022888184 37.4865608215332 2.93968749046326
4.88531255722046 37.4181251525879 2.90750002861023
4.88500022888184 37.3503112792969 2.86968755722046
4.88500022888184 37.2846870422363 2.83906245231628
4.88312482833862 37.2190628051758 2.80625009536743
4.8828125 37.1521873474121 2.77281260490417
4.88250017166138 37.0846862792969 2.74062490463257
4.8821873664856 37.0175018310547 2.70624995231628
4.8828125 36.9528121948242 2.68343758583069
4.88406229019165 36.8890609741211 2.66000008583069
4.88374996185303 36.8209381103516 2.62843751907349
4.88250017166138 36.755313873291 2.59906244277954
4.88124990463257 36.6906242370605 2.57281255722046
4.8821873664856 36.6268768310547 2.55031251907349
4.8821873664856 36.5596885681152 2.5231249332428
4.88031244277954 36.4937515258789 2.49468755722046
4.87874984741211 36.4293746948242 2.4684374332428
4.87968730926514 36.3634376525879 2.44812488555908
4.87812519073486 36.2996864318848 2.43093752861023
4.87718772888184 36.2350006103516 2.40249991416931
4.87593746185303 36.1712493896484 2.3824999332428
4.8756251335144 36.1062507629395 2.36468744277954
4.87687492370605 36.0428123474121 2.34531259536743
4.8756251335144 35.9796867370605 2.33062505722046
4.87531232833862 35.9156265258789 2.3128125667572
4.87468767166138 35.8512496948242 2.29968738555908
4.875 35.7896881103516 2.28968739509583
4.87468767166138 35.7271881103516 2.27687501907349
4.87593746185303 35.6631240844727 2.26093745231628
4.87531232833862 35.6003112792969 2.24406242370605
4.87468767166138 35.5374984741211 2.22906255722046
4.875 35.4753112792969 2.21875
-3.64406251907349 32.7953109741211 4.70937490463257
-3.64281249046326 32.8428115844727 4.61875009536743
-3.640625 32.8909378051758 4.53437519073486
-3.63593745231628 32.9403114318848 4.45968770980835
-3.63343739509583 32.9903106689453 4.39437484741211
-3.63062500953674 33.0409393310547 4.32625007629395
-3.62781238555908 33.0915641784668 4.26187515258789
-3.6253125667572 33.143123626709 4.20062494277954
-3.62343740463257 33.1956253051758 4.15156269073486
-3.62249994277954 33.25 4.10249996185303
-3.62249994277954 33.3034362792969 4.05875015258789
-3.62374997138977 33.3574981689453 4.01718759536743
-3.62093758583069 33.4121856689453 3.97812509536743
-3.62093758583069 33.4656257629395 3.93624997138977
-3.62031245231628 33.5196876525879 3.89124989509583
-3.61812496185303 33.5731239318848 3.84687495231628
-3.61593747138977 33.627498626709 3.80281257629395
-3.61406254768372 33.6812515258789 3.75999999046326
-3.61281251907349 33.7371864318848 3.72468757629395
-3.61218738555908 33.7928123474121 3.68968749046326
-3.61031246185303 33.8481254577637 3.65187501907349
-3.61031246185303 33.9028129577637 3.6175000667572
-3.6096875667572 33.9578132629395 3.58468747138977
-3.60843753814697 34.0118751525879 3.5465624332428
-3.6096875667572 34.0646858215332 3.49031257629395
-3.60781240463257 34.1168746948242 3.44000005722046
-3.60374999046326 34.1681251525879 3.38562488555908
-3.60281252861023 34.2206268310547 3.33968758583069
-3.60218739509583 34.2746887207031 3.29843759536743
-3.60031247138977 34.3274993896484 3.24593758583069
-3.60031247138977 34.380313873291 3.19968748092651
-3.59968757629395 34.4331245422363 3.15437507629395
-3.59781241416931 34.4856262207031 3.1096875667572
-3.59593749046326 34.5393753051758 3.07156252861023
-3.59562492370605 34.5931243896484 3.02937507629395
-3.59468746185303 34.6468734741211 2.98562502861023
-3.59312510490417 34.7009391784668 2.94906258583069
-3.59093761444092 34.7568740844727 2.91593742370605
-3.59093761444092 34.8131256103516 2.88812494277954
-3.59249997138977 34.869686126709 2.86343741416931
-3.59218740463257 34.927188873291 2.84937500953674
-3.59124994277954 34.9856262207031 2.83031249046326
-3.59187507629395 35.0446891784668 2.82124996185303
-3.59062504768372 35.1031265258789 2.81187510490417
-3.59031248092651 35.1646881103516 2.81031250953674
-3.58999991416931 35.2249984741211 2.80937504768372
-3.58874988555908 35.2856254577637 2.80781245231628
-3.58999991416931 35.3474998474121 2.81593751907349
-3.58999991416931 35.4103126525879 2.82281255722046
-3.58906245231628 35.4728126525879 2.83187508583069
-3.58968758583069 35.5368766784668 2.85249996185303
-3.58843755722046 35.6006240844727 2.86999988555908
-3.58843755722046 35.6674995422363 2.90343761444092
-3.59031248092651 35.7321891784668 2.92624998092651
-3.58999991416931 35.7975006103516 2.95093750953674
-3.58937501907349 35.8631248474121 2.97843742370605
-3.59062504768372 35.9290618896484 3.0078125
-3.59249997138977 35.9937515258789 3.03187489509583
-3.5934374332428 36.0606231689453 3.06187510490417
-3.59468746185303 36.1278114318848 3.09843754768372
-3.59500002861023 36.1943740844727 3.13625001907349
-3.59625005722046 36.2649993896484 3.18406248092651
-3.59562492370605 36.3371887207031 3.24437499046326
-3.59718751907349 36.4071884155273 3.29625010490417
-3.59937500953674 36.4768753051758 3.34750008583069
-3.59843754768372 36.5475006103516 3.40468740463257
-3.59937500953674 36.6178131103516 3.45499992370605
-3.60031247138977 36.689998626709 3.51343750953674
-3.6015625 36.7625007629395 3.58031249046326
-3.60312509536743 36.8356246948242 3.64531254768372
-3.60343742370605 36.9099998474121 3.72125005722046
-3.60531258583069 36.9850006103516 3.79749989509583
-3.60781240463257 37.0612487792969 3.88031244277954
-3.60999989509583 37.1396865844727 3.97093749046326
-3.61031246185303 37.2168731689453 4.06031227111816
-3.61312508583069 37.2928123474121 4.14812517166138
-3.61531257629395 37.372501373291 4.24625015258789
-3.61593747138977 37.4518737792969 4.3515625
-3.61374998092651 37.5299987792969 4.44343757629395
-3.61312508583069 37.6078109741211 4.53562498092651
-3.61249995231628 37.6859359741211 4.62874984741211
-3.61062502861023 37.7675018310547 4.7337498664856
-3.60687494277954 37.8484382629395 4.84625005722046
-3.60718750953674 37.9303131103516 4.9603123664856
-3.60781240463257 38.0121879577637 5.07218742370605
-3.609375 38.0909385681152 5.17000007629395
4.87624979019165 35.4121856689453 2.21250009536743
4.87687492370605 35.3506240844727 2.20531249046326
4.875 35.2893753051758 2.19687509536743
4.87406253814697 35.2259368896484 2.19093751907349
4.87468767166138 35.1653137207031 2.18499994277954
4.87468767166138 35.1046867370605 2.18249988555908
4.8743748664856 35.044376373291 2.18249988555908
4.8743748664856 34.9824981689453 2.18343758583069
4.87406253814697 34.9234390258789 2.19093751907349
4.87249994277954 34.8650016784668 2.19593739509583
4.87249994277954 34.8050003051758 2.19906258583069
4.87375020980835 34.7431259155273 2.2028124332428
4.87406253814697 34.6837501525879 2.20687508583069
4.87312507629395 34.6268768310547 2.22000002861023
4.87249994277954 34.567813873291 2.22718739509583
4.87218761444092 34.5087509155273 2.23843741416931
4.87281227111816 34.4515609741211 2.25375008583069
4.87281227111816 34.3915634155273 2.2653124332428
4.87249994277954 34.3346862792969 2.28749990463257
4.87249994277954 34.2778129577637 2.30531239509583
4.8743748664856 34.2203140258789 2.31718754768372
4.87406253814697 34.1631240844727 2.34531259536743
4.87249994277954 34.106876373291 2.36812496185303
4.87125015258789 34.0503120422363 2.38875007629395
4.87218761444092 33.9928131103516 2.40906238555908
4.87312507629395 33.9356231689453 2.43531250953674
4.87468767166138 33.880313873291 2.46593761444092
4.87468767166138 33.8250007629395 2.49749994277954
4.87406253814697 33.7687492370605 2.53218746185303
4.875 33.7150001525879 2.56874990463257
4.87687492370605 33.661563873291 2.60625004768372
4.87718772888184 33.6053123474121 2.63593745231628
4.87718772888184 33.5490608215332 2.67031240463257
4.87687492370605 33.4965629577637 2.71656250953674
4.87781238555908 33.4462509155273 2.7737500667572
4.87874984741211 33.3928108215332 2.82562494277954
4.87812519073486 33.3406257629395 2.87843751907349
4.87937498092651 33.2903137207031 2.93531250953674
4.88093757629395 33.2406234741211 3.00312495231628
4.8821873664856 33.1906242370605 3.07906246185303
4.8834376335144 33.1428108215332 3.15218758583069
4.8828125 33.0953140258789 3.23312497138977
4.88250017166138 33.0478134155273 3.31750011444092
4.88312482833862 33.0015640258789 3.40468740463257
4.88593769073486 32.958438873291 3.51093745231628
4.91968727111816 32.6740608215332 5.92656230926514
4.91968727111816 32.6128120422363 5.93093729019165
4.91968727111816 32.5506248474121 5.93093729019165
4.92000007629395 32.4903106689453 5.93187522888184
4.92062520980835 32.4293746948242 5.93906259536743
-3.55843758583069 32.6968765258789 4.8587498664856
-3.55812501907349 32.7421875 4.7571873664856
-3.5550000667572 32.786563873291 4.65843772888184
-3.55250000953674 32.8353118896484 4.57499980926514
-3.55062508583069 32.8849983215332 4.4993748664856
-3.54812502861023 32.935001373291 4.42718744277954
-3.54812502861023 32.9853134155273 4.36250019073486
-3.54468750953674 33.036563873291 4.2962498664856
-3.54062509536743 33.0862503051758 4.22843742370605
-3.53812503814697 33.1378135681152 4.16531229019165
-3.53718757629395 33.1909370422363 4.12062501907349
-3.53593754768372 33.2465629577637 4.07968759536743
-3.53593754768372 33.3003120422363 4.04031229019165
-3.53687500953674 33.3546867370605 4.00124979019165
-3.53343749046326 33.4090614318848 3.95937490463257
-3.53406238555908 33.4621887207031 3.91125011444092
-3.53406238555908 33.5153121948242 3.8590624332428
-3.53187489509583 33.5684356689453 3.81500005722046
-3.53031253814697 33.6231231689453 3.77156257629395
-3.52906250953674 33.6775016784668 3.73499989509583
-3.52749991416931 33.7334365844727 3.7034375667572
-3.52687501907349 33.7893753051758 3.67249989509583
-3.52562499046326 33.8446884155273 3.63468742370605
-3.52624988555908 33.8993759155273 3.59812498092651
-3.52406239509583 33.9540634155273 3.56124997138977
-3.52156257629395 34.0068740844727 3.51843738555908
-3.5231249332428 34.0578117370605 3.45875000953674
-3.52187490463257 34.1106262207031 3.40906238555908
-3.51906251907349 34.1628112792969 3.359375
-3.51781249046326 34.2150001525879 3.30906248092651
-3.5159375667572 34.2678108215332 3.26250004768372
-3.51500010490417 34.3203125 3.2112500667572
-3.51468753814697 34.3743743896484 3.16562509536743
-3.51437497138977 34.4268760681152 3.12062501907349
-3.51218748092651 34.4778137207031 3.07187509536743
-3.50999999046326 34.5303115844727 3.02093744277954
-3.50937509536743 34.5828132629395 2.97062492370605
-3.5078125 34.6362495422363 2.92562508583069
-3.50656247138977 34.689998626709 2.88812494277954
-3.50500011444092 34.7456245422363 2.85093760490417
-3.50437498092651 34.8018760681152 2.82562494277954
-3.50468754768372 34.8581237792969 2.80093741416931
-3.50500011444092 34.9150009155273 2.77906250953674
-3.50593757629395 34.9743766784668 2.76281261444092
-3.50624990463257 35.0340614318848 2.75874996185303
-3.50437498092651 35.0921859741211 2.74843740463257
-3.50281238555908 35.1525001525879 2.74406242370605
-3.50250005722046 35.2131233215332 2.74468755722046
-3.50218749046326 35.2746887207031 2.74812507629395
-3.50406241416931 35.3368759155273 2.75874996185303
-3.50437498092651 35.3993759155273 2.76312494277954
-3.50406241416931 35.4609375 2.76781249046326
-3.50468754768372 35.5246887207031 2.78593754768372
-3.50406241416931 35.5887489318848 2.80124998092651
-3.50312495231628 35.6543731689453 2.8278124332428
-3.50406241416931 35.7184371948242 2.84968757629395
-3.50312495231628 35.7834358215332 2.87593746185303
-3.50406241416931 35.8499984741211 2.90562510490417
-3.50500011444092 35.9156265258789 2.93374991416931
-3.50687503814697 35.9809379577637 2.9606249332428
-3.50718760490417 36.049373626709 2.99531245231628
-3.5078125 36.1168746948242 3.03218746185303
-3.5078125 36.1824989318848 3.06906247138977
-3.50937509536743 36.2506256103516 3.10781240463257
-3.5081250667572 36.3215637207031 3.15906238555908
-3.50843739509583 36.390625 3.20843744277954
-3.50999999046326 36.4609375 3.26187491416931
-3.51031255722046 36.5321884155273 3.31843757629395
-3.51250004768372 36.6028137207031 3.37187504768372
-3.51406240463257 36.6734390258789 3.42906260490417
-3.51406240463257 36.7456245422363 3.4925000667572
-3.51656246185303 36.8193740844727 3.55906248092651
-3.51718759536743 36.893123626709 3.62781238555908
-3.51749992370605 36.9674987792969 3.7028124332428
-3.51906251907349 37.044376373291 3.7890625
-3.51968741416931 37.1234359741211 3.87937498092651
-3.52093744277954 37.1990623474121 3.96312499046326
-3.5237500667572 37.2731246948242 4.04406261444092
-3.52468752861023 37.3531265258789 4.13968753814697
-3.52687501907349 37.4343757629395 4.25093746185303
-3.52874994277954 37.5137481689453 4.35187482833862
-3.52906250953674 37.5918731689453 4.44718742370605
-3.52968740463257 37.6687507629395 4.53812503814697
-3.52843761444092 37.7503128051758 4.64187479019165
-3.5231249332428 37.8325004577637 4.75812482833862
-3.52062511444092 37.9153137207031 4.87656259536743
-3.52031254768372 37.9987487792969 4.99499988555908
-3.52187490463257 38.0784378051758 5.09812498092651
4.92156267166138 32.372501373291 5.96468734741211
4.92000007629395 32.3153114318848 5.99687480926514
4.91968727111816 32.2574996948242 6.02156257629395
4.92000007629395 32.200626373291 6.0553126335144
4.91843748092651 32.1450004577637 6.09000015258789
4.91812515258789 32.0915641784668 6.13687515258789
4.91968727111816 32.0368766784668 6.18468761444092
4.91937494277954 31.9828128814697 6.23843765258789
4.91750001907349 31.9312496185303 6.3046875
4.93375015258789 31.5418758392334 6.98468732833862
4.93125009536743 31.4890632629395 7.04218769073486
4.93062496185303 31.4368743896484 7.09843730926514
4.93218755722046 31.3831253051758 7.15843772888184
4.93406248092651 31.3299999237061 7.21624994277954
4.93375015258789 31.2759380340576 7.26718759536743
4.93499994277954 31.2240619659424 7.3274998664856
4.93499994277954 31.1703128814697 7.3828125
4.93531227111816 31.1168746948242 7.44124984741211
4.9375 31.0631256103516 7.49968767166138
4.94000005722046 31.0121879577637 7.57406234741211
4.94250011444092 30.9603118896484 7.64437484741211
4.94374990463257 30.9118747711182 7.72187519073486
4.94093751907349 30.8624992370605 7.8131251335144
4.80937480926514 38.7125015258789 3.64187502861023
4.80781269073486 38.6409378051758 3.58812499046326
4.80906248092651 38.5706253051758 3.53968739509583
4.80781269073486 38.5 3.48656249046326
4.80562496185303 38.2862510681152 3.31437492370605
4.80499982833862 38.2168731689453 3.27093744277954
4.8053126335144 38.1456260681152 3.21968746185303
4.8046875 38.0753135681152 3.16781258583069
4.80312490463257 38.0074996948242 3.12781238555908
4.80187511444092 37.9393768310547 3.08812499046326
4.80000019073486 37.8703117370605 3.0465624332428
4.79874992370605 37.8028106689453 3.01250004768372
4.79968738555908 37.736873626709 2.98375010490417
4.79843759536743 37.6696891784668 2.94687509536743
4.79812479019165 37.604061126709 2.9140625
4.79937505722046 37.5362510681152 2.88343739509583
4.79843759536743 37.4700012207031 2.8515625
4.79874992370605 37.4025001525879 2.81812500953674
4.79812479019165 37.3353118896484 2.78343749046326
4.79874992370605 37.2678108215332 2.74937510490417
4.7975001335144 37.2009391784668 2.71312499046326
4.796875 37.1346893310547 2.67624998092651
4.79531240463257 37.0681266784668 2.64656257629395
4.79343748092651 37.0006256103516 2.61156249046326
4.79468727111816 36.9353141784668 2.58781242370605
4.79562520980835 36.8718757629395 2.56718754768372
4.79593753814697 36.8050003051758 2.5390625
4.796875 36.7400016784668 2.5153124332428
4.79531240463257 36.6749992370605 2.48624992370605
4.79531240463257 36.6103134155273 2.4606249332428
-3.46968746185303 32.6878128051758 4.79874992370605
-3.46812510490417 32.7346878051758 4.70937490463257
-3.46437501907349 32.7806243896484 4.61968755722046
-3.46312499046326 32.8303108215332 4.54125022888184
-3.46250009536743 32.8800010681152 4.46687507629395
-3.4606249332428 32.9300003051758 4.39468765258789
-3.46000003814697 32.9803123474121 4.33093738555908
-3.45749998092651 33.0321884155273 4.26812505722046
-3.45468759536743 33.0825004577637 4.2037501335144
-3.4528124332428 33.1346893310547 4.14249992370605
-3.45250010490417 33.1878128051758 4.09687519073486
-3.45218753814697 33.2431259155273 4.05718755722046
-3.45187497138977 33.2975006103516 4.01906251907349
-3.45125007629395 33.3506240844727 3.97874999046326
-3.44624996185303 33.4040641784668 3.93031239509583
-3.44593739509583 33.4578132629395 3.88499999046326
-3.4456250667572 33.5125007629395 3.84156250953674
-3.44406247138977 33.5671882629395 3.80718755722046
-3.44468760490417 33.6215629577637 3.7653124332428
-3.44312500953674 33.6756248474121 3.7265625
-3.44093751907349 33.731876373291 3.69437503814697
-3.44062495231628 33.7859382629395 3.65781259536743
-3.44000005722046 33.8403129577637 3.61343741416931
-3.43937492370605 33.8937492370605 3.56718754768372
-3.43624997138977 33.947811126709 3.52656245231628
-3.43437504768372 34.0006256103516 3.48375010490417
-3.43374991416931 34.0515632629395 3.4296875
-3.43281245231628 34.1065635681152 3.38750004768372
-3.43187499046326 34.1593742370605 3.33874988555908
-3.43374991416931 34.2103118896484 3.28312492370605
-3.43218755722046 34.2621879577637 3.22906255722046
-3.4300000667572 34.3134384155273 3.171875
-3.42812490463257 34.3671875 3.1246874332428
-3.42750000953674 34.4196891784668 3.08031249046326
-3.42499995231628 34.4703140258789 3.03031253814697
-3.42312502861023 34.5221862792969 2.9768750667572
-3.42249989509583 34.5753135681152 2.92687511444092
-3.42031240463257 34.6287498474121 2.87968754768372
-3.41875004768372 34.6809387207031 2.83187508583069
-3.41718745231628 34.7350006103516 2.78718757629395
-3.41593742370605 34.7906265258789 2.75906252861023
-3.41562509536743 34.8468742370605 2.73281240463257
-3.41562509536743 34.9018745422363 2.70374989509583
-3.41593742370605 34.9606246948242 2.68125009536743
-3.41593742370605 35.0203132629395 2.67718744277954
-3.41562509536743 35.0787506103516 2.67125010490417
-3.41531252861023 35.1403121948242 2.67062497138977
-3.41499996185303 35.2018737792969 2.67312502861023
-3.4137499332428 35.2625007629395 2.67437505722046
-3.41531252861023 35.3234367370605 2.68249988555908
-3.41562509536743 35.3871879577637 2.69218754768372
-3.41593742370605 35.4496879577637 2.69968748092651
-3.41718745231628 35.5134391784668 2.71749997138977
-3.41781258583069 35.5787506103516 2.74156260490417
-3.41750001907349 35.643123626709 2.76500010490417
-3.41750001907349 35.7075004577637 2.78625011444092
-3.41624999046326 35.7728118896484 2.81437492370605
-3.41750001907349 35.8393745422363 2.84187507629395
-3.41812491416931 35.9046859741211 2.86843752861023
-3.41968750953674 35.9700012207031 2.8981249332428
-3.42031240463257 36.0374984741211 2.93093752861023
-3.42125010490417 36.1046867370605 2.96250009536743
-3.42062497138977 36.1699981689453 2.99562501907349
-3.4221875667572 36.2359390258789 3.02812504768372
-3.4221875667572 36.3053131103516 3.06937503814697
-3.421875 36.375 3.11906242370605
-3.42281246185303 36.4468765258789 3.18156242370605
-3.42312502861023 36.518123626709 3.24000000953674
-3.42531251907349 36.5893745422363 3.29562497138977
-3.42718744277954 36.6596870422363 3.35093760490417
-3.42718744277954 36.7303123474121 3.40625
-3.4293749332428 36.8031234741211 3.47375011444092
-3.4296875 36.8768768310547 3.54250001907349
-3.42843747138977 36.9487495422363 3.60999989509583
-3.42843747138977 37.0237503051758 3.6878125667572
-3.42906260490417 37.1021881103516 3.7737500667572
-3.43218755722046 37.1775016784668 3.85750007629395
-3.43593740463257 37.252498626709 3.94031238555908
-3.43687510490417 37.3340606689453 4.0396876335144
-3.4371874332428 37.4143753051758 4.14562511444092
-3.43968749046326 37.4937515258789 4.24562501907349
-3.44093751907349 37.5740623474121 4.3509373664856
-3.44374990463257 37.6528129577637 4.44875001907349
-3.44374990463257 37.734375 4.55437517166138
-3.44000005722046 37.8171882629395 4.67437505722046
-3.43562507629395 37.8996887207031 4.79218769073486
-3.43343758583069 37.981876373291 4.90500020980835
-3.43312501907349 38.0615615844727 5.00874996185303
-3.43406248092651 38.1437492370605 5.11499977111816
4.79656267166138 36.5431251525879 2.43031239509583
4.79500007629395 36.4775009155273 2.40437507629395
4.79250001907349 36.4128112792969 2.37781238555908
4.79250001907349 36.3459358215332 2.34999990463257
4.79062509536743 36.2825012207031 2.33156251907349
4.79031229019165 36.2174987792969 2.30375003814697
4.78999996185303 36.153751373291 2.28531241416931
4.78999996185303 36.0900001525879 2.27156257629395
4.78999996185303 36.0268745422363 2.25468754768372
4.78875017166138 35.9628143310547 2.23312497138977
4.78937482833862 35.8993759155273 2.2184374332428
4.78781270980835 35.8349990844727 2.20374989509583
4.78749990463257 35.7721862792969 2.18937492370605
4.78625011444092 35.708438873291 2.17249989509583
4.78812503814697 35.6450004577637 2.15906238555908
4.7890625 35.5828132629395 2.1487500667572
4.78812503814697 35.5206260681152 2.13687491416931
4.78781270980835 35.4587516784668 2.12374997138977
4.7884373664856 35.3940620422363 2.11093759536743
4.78937482833862 35.3325004577637 2.1018750667572
4.78781270980835 35.2706260681152 2.09124994277954
4.78656244277954 35.2081260681152 2.08812499046326
-3.4762499332428 31.4581241607666 9.2162504196167
-3.47437500953674 31.5093746185303 9.14687538146973
-3.47437500953674 31.5599994659424 9.06718730926514
4.78749990463257 35.1474990844727 2.08281254768372
4.78749990463257 35.0859375 2.07874989509583
4.78593730926514 35.0253143310547 2.078125
4.78562498092651 34.9643745422363 2.08031249046326
4.78562498092651 34.9068756103516 2.09218740463257
4.78531265258789 34.8478126525879 2.09593749046326
4.78531265258789 34.7874984741211 2.09906244277954
4.78625011444092 34.7259368896484 2.10249996185303
4.78749990463257 34.6674995422363 2.109375
4.78718757629395 34.6100006103516 2.12312507629395
4.78593730926514 34.5506248474121 2.12937498092651
4.78562498092651 34.4921875 2.14000010490417
4.78687477111816 34.4346885681152 2.15343761444092
4.78749990463257 34.375 2.16499996185303
4.78718757629395 34.3175010681152 2.18093752861023
4.78593730926514 34.2599983215332 2.19812488555908
4.78749990463257 34.2024993896484 2.21250009536743
4.78749990463257 34.1450004577637 2.23906254768372
4.78593730926514 34.088436126709 2.26062488555908
4.78531265258789 34.0325012207031 2.28062510490417
4.78562498092651 33.9753112792969 2.29906249046326
4.78593730926514 33.9181251525879 2.328125
4.78718757629395 33.8624992370605 2.35875010490417
-3.39249992370605 32.455623626709 5.2662501335144
-3.38812494277954 32.5012512207031 5.15937519073486
-3.38562488555908 32.5437507629395 5.04718732833862
