# .PCD v0.7 - Point Cloud Data file format
VERSION 0.7
FIELDS x y z
SIZE 4 4 4
TYPE F F F
COUNT 1 1 1
WIDTH 945
HEIGHT 1
VIEWPOINT 0 0 0 1 0 0 0
POINTS 945
DATA ascii
-4.39624977111816 33.9137496948242 4.04187488555908
-4.39406251907349 33.9728126525879 4.03406238555908
-4.39249992370605 34.0328140258789 4.02624988555908
-4.39218759536743 34.0934371948242 4.02374982833862
-4.39249992370605 34.1546859741211 4.01749992370605
-4.39375019073486 34.2137489318848 4.01156234741211
-4.39343738555908 34.2762489318848 4.01249980926514
-4.39593744277954 34.3353118896484 4.00812482833862
-4.39468765258789 34.3950004577637 4.00156259536743
-4.39437484741211 34.4550018310547 3.99125003814697
-4.39437484741211 34.5153121948242 3.99000000953674
-4.39281272888184 34.5774993896484 3.99062490463257
-4.39218759536743 34.638126373291 3.99062490463257
-4.39218759536743 34.6996879577637 3.99031257629395
-4.39187479019165 34.760311126709 3.99156260490417
-4.39218759536743 34.8218765258789 3.98874998092651
-4.39218759536743 34.8821868896484 3.98624992370605
-4.39187479019165 34.942813873291 3.97968745231628
-4.39218759536743 35.0034370422363 3.98250007629395
-4.39375019073486 35.0665626525879 3.98812508583069
-4.39156246185303 35.127498626709 3.98906254768372
-4.39031267166138 35.1881256103516 3.98531246185303
-4.3912501335144 35.25 3.98968744277954
-4.39187479019165 35.3125 4.00156259536743
-4.39187479019165 35.3746871948242 4.00281238555908
-4.39156246185303 35.4359359741211 4.01125001907349
-4.390625 35.4996871948242 4.02500009536743
-4.39156246185303 35.560001373291 4.02500009536743
-4.38968753814697 35.6203117370605 4.02124977111816
-4.38843727111816 35.6828117370605 4.02468729019165
-4.38937520980835 35.744686126709 4.03125
-4.38812494277954 35.8059387207031 4.0396876335144
-4.38781261444092 35.8681259155273 4.04125022888184
-4.38843727111816 35.9303131103516 4.0475001335144
-4.39156246185303 35.994686126709 4.0631251335144
-4.39343738555908 36.0574989318848 4.07562494277954
-4.39218759536743 36.1221885681152 4.09093761444092
-4.39031267166138 36.1853141784668 4.10281229019165
-4.39156246185303 36.2496871948242 4.11843729019165
-4.39249992370605 36.3118743896484 4.12906265258789
-4.39187479019165 36.3746871948242 4.1399998664856
-4.39093732833862 36.4375 4.14468765258789
-4.39187479019165 36.5006256103516 4.15781259536743
-4.39218759536743 36.5665626525879 4.18125009536743
-4.39312505722046 36.6309356689453 4.2037501335144
-4.39312505722046 36.6974983215332 4.23031234741211
-4.39406251907349 36.7634391784668 4.26031255722046
-4.39437484741211 36.8300018310547 4.28781270980835
-4.39468765258789 36.8965606689453 4.31562519073486
-4.39468765258789 36.9599990844727 4.32562494277954
-4.39312505722046 37.0224990844727 4.33562517166138
-4.39249992370605 37.0849990844727 4.34218740463257
-4.39249992370605 37.1481246948242 4.3521876335144
-4.39281272888184 37.2121887207031 4.36374998092651
-4.39249992370605 37.2737503051758 4.37312507629395
-4.39281272888184 37.3365631103516 4.38406229019165
-4.39249992370605 37.4025001525879 4.4068751335144
-4.39218759536743 37.4678115844727 4.43281269073486
-4.390625 37.5346870422363 4.45593738555908
-4.39031267166138 37.5984382629395 4.47562503814697
-4.39093732833862 37.6646881103516 4.49968767166138
-4.39218759536743 37.7299995422363 4.5240626335144
-4.39312505722046 37.7965621948242 4.54812479019165
-4.39218759536743 37.8606262207031 4.56781244277954
-4.39156246185303 37.9278106689453 4.59343767166138
-4.3912501335144 37.9943733215332 4.62343740463257
-4.39031267166138 38.0606231689453 4.64937496185303
-4.390625 38.1259384155273 4.67531251907349
-4.38937520980835 38.1918754577637 4.70531272888184
-4.38749980926514 38.260311126709 4.7415623664856
-4.38687515258789 38.3278121948242 4.77687501907349
-4.38562488555908 38.3950004577637 4.80687522888184
-4.38468742370605 38.4628143310547 4.83718729019165
-4.38500022888184 38.5353126525879 4.90031242370605
-4.38718748092651 38.611873626709 4.98156261444092
-4.38968753814697 38.6865615844727 5.0553126335144
-4.39249992370605 38.7574996948242 5.11218738555908
-4.39624977111816 38.8271865844727 5.15218734741211
-4.39750003814697 38.8950004577637 5.18218755722046
-4.39968729019165 38.9606246948242 5.20499992370605
-4.40031242370605 39.0281257629395 5.23562479019165
-4.39812517166138 39.0953140258789 5.26468753814697
4.06593751907349 32.9075012207031 7.37343740463257
4.06593751907349 32.8531265258789 7.42468738555908
-4.52468729019165 29.4156246185303 12.483437538147
-4.52093744277954 29.4665622711182 12.390625
-4.51812505722046 29.5162506103516 12.2990627288818
-4.51718759536743 29.5699996948242 12.2240629196167
-4.51468753814697 29.6224994659424 12.1534376144409
-4.51125001907349 29.6756248474121 12.0812501907349
-4.51156234741211 29.7299995422363 12.0162496566772
-4.51000022888184 29.7846870422363 11.9581251144409
-4.50937509536743 29.8421878814697 11.9078121185303
-4.50812482833862 29.8971881866455 11.8534374237061
-4.50562477111816 29.9506244659424 11.7924995422363
-4.50437498092651 30.0056247711182 11.7287502288818
-4.50218772888184 30.0599994659424 11.6712503433228
-4.50031232833862 30.1156253814697 11.6131248474121
-4.4993748664856 30.1715621948242 11.5643749237061
-4.49781227111816 30.2259368896484 11.508749961853
-4.49687480926514 30.2831249237061 11.4612503051758
-4.49468755722046 30.3412494659424 11.4162502288818
-4.49187517166138 30.3959369659424 11.3596878051758
-4.4928126335144 30.4524993896484 11.319375038147
-4.49062490463257 30.5081253051758 11.2731246948242
-4.48781251907349 30.5631256103516 11.2221870422363
-4.48406267166138 30.6203117370605 11.1737499237061
-4.4765625 30.6762504577637 11.1265621185303
4.06687498092651 32.8006248474121 7.49062490463257
4.06562519073486 32.7496871948242 7.5546875
4.06593751907349 32.6971893310547 7.61468744277954
4.06937503814697 32.6446876525879 7.67531251907349
4.07000017166138 32.5900001525879 7.72437477111816
4.07000017166138 32.5353126525879 7.77093744277954
4.0703125 32.4821891784668 7.82187509536743
4.07187509536743 32.4281234741211 7.87656259536743
4.07250022888184 32.375 7.93375015258789
4.07281255722046 32.3206253051758 7.99093770980835
4.07406234741211 32.2675018310547 8.04781246185303
4.07499980926514 32.2140617370605 8.1015625
-4.47499990463257 31.3893756866455 10.4075002670288
4.07625007629395 32.1599998474121 8.15156269073486
4.07562494277954 32.1053123474121 8.203125
4.07656240463257 32.0509376525879 8.25656223297119
4.07593727111816 31.9981250762939 8.31812477111816
4.07562494277954 31.9453125 8.38249969482422
4.07625007629395 31.8937492370605 8.44656276702881
4.07718753814697 31.8403129577637 8.50937461853027
4.07937479019165 31.7871875762939 8.56750011444092
4.08062505722046 31.7328128814697 8.62125015258789
4.07999992370605 31.6803131103516 8.68624973297119
4.07968759536743 31.6296882629395 8.75625038146973
4.08218765258789 31.5793743133545 8.83406257629395
4.08562517166138 31.5296878814697 8.92093753814697
4.08750009536743 31.4803123474121 9.00937461853027
4.08874988555908 31.4331245422363 9.109375
4.08843755722046 31.3871879577637 9.21593761444092
-4.30625009536743 32.5137481689453 4.46374988555908
-4.30968761444092 32.5656242370605 4.40937519073486
-4.3118748664856 32.6199989318848 4.36374998092651
-4.31343746185303 32.6746864318848 4.32781267166138
-4.31406259536743 32.7284393310547 4.28437519073486
-4.31687498092651 32.7846870422363 4.24468755722046
-4.31718730926514 32.8409385681152 4.21968746185303
-4.31687498092651 32.8990631103516 4.19687509536743
-4.31531238555908 32.955623626709 4.17281246185303
-4.31500005722046 33.0149993896484 4.15468740463257
-4.31374979019165 33.0724983215332 4.1321873664856
-4.3131251335144 33.130313873291 4.1087498664856
-4.31281232833862 33.1884384155273 4.09468746185303
-4.31156253814697 33.2493743896484 4.08624982833862
-4.31093740463257 33.3081245422363 4.08156251907349
-4.31093740463257 33.3675003051758 4.07843732833862
-4.31093740463257 33.4281234741211 4.0696873664856
-4.31156253814697 33.4874992370605 4.06218767166138
-4.31125020980835 33.5478134155273 4.05437517166138
-4.3125 33.6071891784668 4.04156255722046
-4.31062507629395 33.666561126709 4.0306248664856
-4.30843734741211 33.7237510681152 4.01218748092651
-4.30812501907349 33.7846870422363 4.00374984741211
-4.30843734741211 33.84375 3.99468755722046
-4.30812501907349 33.9053115844727 3.9921875
-4.30593729019165 33.9653129577637 3.99062490463257
-4.3053126335144 34.0271873474121 3.99156260490417
-4.30499982833862 34.0887489318848 3.99062490463257
-4.3053126335144 34.1490631103516 3.9846875667572
-4.30562496185303 34.2078132629395 3.97593760490417
-4.3053126335144 34.2693748474121 3.97000002861023
-4.30718755722046 34.3278121948242 3.96281242370605
-4.30625009536743 34.3875007629395 3.95781254768372
-4.30687522888184 34.4481239318848 3.95218753814697
-4.30718755722046 34.5096893310547 3.95499992370605
-4.30656242370605 34.5715637207031 3.95499992370605
-4.30499982833862 34.6318740844727 3.9534375667572
-4.30499982833862 34.692813873291 3.95125007629395
-4.3053126335144 34.7543754577637 3.95468759536743
-4.30656242370605 34.8153114318848 3.95125007629395
-4.30656242370605 34.8756256103516 3.95031261444092
-4.3053126335144 34.9371871948242 3.94906258583069
-4.3046875 34.9978141784668 3.95093750953674
-4.3046875 35.0603141784668 3.95187497138977
-4.30312490463257 35.1218757629395 3.95468759536743
-4.30249977111816 35.1831245422363 3.9534375667572
-4.30281257629395 35.2449989318848 3.95937490463257
-4.30312490463257 35.307186126709 3.97156238555908
-4.30312490463257 35.369686126709 3.97562503814697
-4.30281257629395 35.432186126709 3.98687505722046
-4.30249977111816 35.4956245422363 3.99749994277954
-4.3040623664856 35.5553131103516 3.99593758583069
-4.30281257629395 35.6168746948242 3.99687504768372
-4.30249977111816 35.6793746948242 4
-4.30249977111816 35.7403106689453 4.00406265258789
-4.30031251907349 35.802188873291 4.015625
-4.30031251907349 35.8643760681152 4.01875019073486
-4.30093765258789 35.9259376525879 4.0228123664856
-4.30312490463257 35.9893760681152 4.03218746185303
-4.3046875 36.0515632629395 4.04312515258789
-4.3046875 36.1168746948242 4.06125020980835
-4.30343770980835 36.1803131103516 4.07281255722046
-4.30375003814697 36.2440643310547 4.08406257629395
-4.30437517166138 36.3059387207031 4.09781265258789
-4.30312490463257 36.369686126709 4.11218738555908
-4.30281257629395 36.432186126709 4.11625003814697
-4.30343770980835 36.4940643310547 4.12656259536743
-4.3040623664856 36.5596885681152 4.14312505722046
-4.30656242370605 36.6231231689453 4.15781259536743
-4.3053126335144 36.6893768310547 4.18187522888184
-4.30437517166138 36.755313873291 4.21000003814697
-4.30562496185303 36.8224983215332 4.24125003814697
-4.30749988555908 36.8890609741211 4.2740626335144
-4.30906248092651 36.9524993896484 4.28406238555908
-4.30749988555908 37.0146865844727 4.29062509536743
-4.30656242370605 37.0778121948242 4.29968738555908
-4.30593729019165 37.1421890258789 4.31656265258789
-4.30687522888184 37.2071876525879 4.33468770980835
-4.30718755722046 37.2693748474121 4.34218740463257
-4.30718755722046 37.330623626709 4.34812498092651
-4.30718755722046 37.3956260681152 4.36968755722046
-4.30687522888184 37.4609375 4.39375019073486
-4.30593729019165 37.5290641784668 4.4225001335144
-4.30687522888184 37.5934371948242 4.44562482833862
-4.30718755722046 37.6599998474121 4.47125005722046
-4.30718755722046 37.7259368896484 4.49875020980835
-4.30749988555908 37.7918739318848 4.52093744277954
-4.30718755722046 37.8565635681152 4.54500007629395
-4.3053126335144 37.924373626709 4.57343769073486
-4.30343770980835 37.9906234741211 4.60468769073486
-4.30249977111816 38.057186126709 4.63062477111816
-4.30124998092651 38.122501373291 4.65406227111816
-4.30062484741211 38.1893768310547 4.68937492370605
-4.30031251907349 38.2571868896484 4.72625017166138
-4.30000019073486 38.3250007629395 4.76218748092651
-4.29812479019165 38.3925018310547 4.79374980926514
-4.29593753814697 38.4587516784668 4.81874990463257
-4.29593753814697 38.528751373291 4.86531257629395
-4.2962498664856 38.6006240844727 4.92218732833862
-4.2975001335144 38.6712493896484 4.97562503814697
-4.30156230926514 38.7412490844727 5.02437496185303
-4.30562496185303 38.8109359741211 5.06624984741211
-4.30718755722046 38.8778114318848 5.09343767166138
-4.31062507629395 38.9425010681152 5.11250019073486
-4.31218767166138 39.0099983215332 5.14375019073486
-4.31031227111816 39.0765609741211 5.16968727111816
3.97125005722046 34.5696868896484 6.19281244277954
3.97093749046326 34.5050010681152 6.18343734741211
3.97062492370605 34.4425010681152 6.17656230926514
-4.43499994277954 29.4121875762939 12.4612503051758
-4.43249988555908 29.4628124237061 12.3653125762939
-4.42999982833862 29.5131244659424 12.2749996185303
-4.4290623664856 29.5668754577637 12.1990623474121
-4.42656230926514 29.6196880340576 12.1312503814697
-4.42281246185303 29.6725006103516 12.0612497329712
-4.421875 29.7268753051758 11.9940624237061
-4.42031240463257 29.7809371948242 11.9331245422363
-4.41968727111816 29.8387508392334 11.8809375762939
-4.41906261444092 29.8940620422363 11.8284378051758
-4.41687488555908 29.9471874237061 11.7631254196167
-4.4146876335144 30.0015621185303 11.6996879577637
-4.41218757629395 30.0556259155273 11.6393747329712
-4.41031265258789 30.1118755340576 11.5818748474121
-4.40843772888184 30.1674995422363 11.5290622711182
-4.40749979019165 30.2221870422363 11.475625038147
-4.4068751335144 30.2790622711182 11.4300003051758
-4.40468740463257 30.3362503051758 11.3806247711182
-4.40343761444092 30.3903121948242 11.3203125
-4.40531253814697 30.4465618133545 11.2784376144409
-4.40281248092651 30.5021877288818 11.2318754196167
-4.40031242370605 30.5571880340576 11.1800003051758
3.97031259536743 34.3796882629395 6.16937494277954
3.97031259536743 34.3175010681152 6.16843748092651
3.96937489509583 34.2571868896484 6.171875
3.96781253814697 34.1962509155273 6.18062496185303
3.96781253814697 34.138126373291 6.1953125
3.9690625667572 34.0803108215332 6.22218751907349
3.96937489509583 34.0231246948242 6.25593757629395
3.9684374332428 33.9671859741211 6.28125
3.9690625667572 33.9106254577637 6.31718730926514
3.97000002861023 33.8574981689453 6.36124992370605
3.97093749046326 33.8028106689453 6.40937519073486
3.97218751907349 33.7484359741211 6.4524998664856
3.97156238555908 33.6946868896484 6.49781227111816
3.97187495231628 33.6399993896484 6.54374980926514
3.97062492370605 33.5859375 6.59343767166138
3.97031259536743 33.5325012207031 6.65000009536743
3.97218751907349 33.4803123474121 6.70468759536743
3.97468757629395 33.4278106689453 6.76125001907349
3.97562503814697 33.3753128051758 6.82312488555908
3.97749996185303 33.3224983215332 6.88093757629395
3.97749996185303 33.2703132629395 6.94374990463257
3.97593760490417 33.2178115844727 7.00437498092651
3.97562503814697 33.1671867370605 7.06874990463257
3.97531247138977 33.1165618896484 7.13906240463257
3.97531247138977 33.0637512207031 7.20062494277954
3.97531247138977 33.0128135681152 7.26999998092651
3.97437500953674 32.9628143310547 7.33718729019165
3.9762499332428 32.9103126525879 7.39687490463257
3.97906255722046 32.8574981689453 7.45812511444092
3.98031258583069 32.8050003051758 7.51968765258789
3.98000001907349 32.7540626525879 7.57718753814697
-4.21281242370605 32.5009384155273 4.38124990463257
-4.21875 32.5546875 4.33781242370605
-4.22281265258789 32.6096878051758 4.29656267166138
-4.22687482833862 32.6646881103516 4.265625
-4.22781229019165 32.7196884155273 4.22781229019165
-4.23000001907349 32.7768745422363 4.19562482833862
-4.23062515258789 32.8340606689453 4.17437505722046
-4.23124980926514 32.8921890258789 4.15343761444092
-4.23000001907349 32.9496879577637 4.13468742370605
-4.23000001907349 33.0087509155273 4.11875009536743
-4.22937488555908 33.0656242370605 4.09250020980835
-4.22781229019165 33.1240615844727 4.0703125
-4.22749996185303 33.182186126709 4.05593729019165
-4.2271876335144 33.2421875 4.04187488555908
-4.22687482833862 33.3003120422363 4.03562498092651
-4.2271876335144 33.3603134155273 4.03312492370605
-4.2271876335144 33.4212493896484 4.02656269073486
-4.22812509536743 33.4806251525879 4.02031230926514
-4.22749996185303 33.5409393310547 4.00968742370605
-4.22843742370605 33.5981254577637 3.99031257629395
-4.2265625 33.6575012207031 3.9768750667572
-4.22468757629395 33.7159385681152 3.96437501907349
-4.22406244277954 33.7775001525879 3.96281242370605
-4.22437477111816 33.8375015258789 3.95468759536743
-4.22343730926514 33.8990631103516 3.94968748092651
-4.22062492370605 33.958438873291 3.94624996185303
-4.21968746185303 34.0196876525879 3.9453125
-4.21843767166138 34.0803108215332 3.94000005722046
-4.2193751335144 34.140625 3.93374991416931
-4.21968746185303 34.200626373291 3.93062496185303
-4.21875 34.2618751525879 3.92531251907349
-4.21999979019165 34.3206253051758 3.92000007629395
-4.21968746185303 34.3806266784668 3.91781258583069
-4.21875 34.4421882629395 3.9137499332428
-4.21843767166138 34.5028114318848 3.91312503814697
-4.21781253814697 34.5634384155273 3.90875005722046
-4.21656227111816 34.6231231689453 3.90343761444092
-4.21750020980835 34.6853141784668 3.90625
-4.21781253814697 34.7478141784668 3.91312503814697
-4.2181248664856 34.8093757629395 3.91312503814697
-4.2181248664856 34.8699989318848 3.9137499332428
-4.21750020980835 34.9318733215332 3.91718745231628
-4.21593761444092 34.9928131103516 3.92125010490417
-4.21562480926514 35.0546875 3.91843748092651
-4.21562480926514 35.1159362792969 3.92093753814697
-4.21562480926514 35.1787490844727 3.92624998092651
-4.21562480926514 35.2400016784668 3.93031239509583
-4.21718740463257 35.3006248474121 3.9371874332428
-4.21718740463257 35.3628120422363 3.93968749046326
-4.21531248092651 35.4253120422363 3.95125007629395
-4.21437501907349 35.4881248474121 3.95968747138977
-4.21562480926514 35.5484390258789 3.96000003814697
-4.21562480926514 35.6109390258789 3.96437501907349
-4.21718740463257 35.674373626709 3.97343754768372
-4.21687507629395 35.7356262207031 3.98031258583069
-4.21406269073486 35.7975006103516 3.98781251907349
-4.21500015258789 35.8596878051758 3.9921875
-4.21656227111816 35.9221878051758 4.00156259536743
-4.21656227111816 35.9853134155273 4.00812482833862
-4.21624994277954 36.0475006103516 4.01843738555908
-4.21750020980835 36.1121864318848 4.03406238555908
-4.21875 36.1749992370605 4.04812479019165
-4.21875 36.2381248474121 4.0553126335144
-4.21750020980835 36.3006248474121 4.06812477111816
-4.21562480926514 36.3650016784668 4.08374977111816
-4.21718740463257 36.4275016784668 4.09156227111816
-4.21875 36.4900016784668 4.10562515258789
-4.21968746185303 36.5543746948242 4.11468744277954
-4.22156238555908 36.6159362792969 4.12031269073486
-4.21999979019165 36.6809387207031 4.13937520980835
-4.2193751335144 36.7471885681152 4.16625022888184
-4.2193751335144 36.8143768310547 4.1946873664856
-4.21999979019165 36.8800010681152 4.22468757629395
-4.22156238555908 36.9440612792969 4.23656272888184
-4.21968746185303 37.0059356689453 4.24562501907349
-4.21875 37.0703125 4.25937509536743
-4.2193751335144 37.1356239318848 4.28031253814697
-4.21999979019165 37.2015609741211 4.30312490463257
-4.21999979019165 37.2643737792969 4.31593751907349
-4.21968746185303 37.3262481689453 4.32593727111816
-4.21999979019165 37.3918762207031 4.34468746185303
-4.22031259536743 37.4565620422363 4.3678126335144
-4.22125005722046 37.5246887207031 4.40093755722046
-4.22187519073486 37.5903129577637 4.4296875
-4.22187519073486 37.6571884155273 4.45968770980835
-4.21999979019165 37.7237510681152 4.48812484741211
-4.22031259536743 37.7881240844727 4.50374984741211
-4.22125005722046 37.8543739318848 4.53343772888184
-4.2193751335144 37.921875 4.55999994277954
-4.21750020980835 37.9874992370605 4.5859375
-4.21656227111816 38.0540618896484 4.61093759536743
-4.21468734741211 38.1181259155273 4.62937498092651
-4.21468734741211 38.1853141784668 4.66593742370605
-4.21468734741211 38.2531242370605 4.70093727111816
-4.21468734741211 38.3221893310547 4.74312496185303
-4.21406269073486 38.3912506103516 4.78281259536743
-4.2115626335144 38.4578132629395 4.81218767166138
-4.21187496185303 38.5265617370605 4.8509373664856
-4.21281242370605 38.5953140258789 4.89406251907349
-4.21468734741211 38.6634368896484 4.93437480926514
-4.21875 38.7324981689453 4.97687482833862
-4.22156238555908 38.8015632629395 5.01468753814697
-4.22343730926514 38.8678131103516 5.04156255722046
-4.2259373664856 38.932186126709 5.05843734741211
-4.2265625 38.9987487792969 5.08718729019165
-4.22499990463257 39.0659370422363 5.11593770980835
3.98000001907349 32.7003135681152 7.63250017166138
3.98218750953674 32.6471862792969 7.69187498092651
3.98281240463257 32.5931243896484 7.74718761444092
3.98218750953674 32.5396881103516 7.80281257629395
3.98093748092651 32.4871864318848 7.85781240463257
-4.34406232833862 29.4596881866455 12.3390626907349
-4.34031248092651 29.5100002288818 12.2515621185303
-4.33781242370605 29.5628128051758 12.1703128814697
-4.3353123664856 29.6149997711182 12.0953121185303
-4.33249998092651 29.6678123474121 12.024374961853
-4.33031272888184 29.7221870422363 11.9590625762939
-4.32937479019165 29.7756252288818 11.8971872329712
-4.328125 29.8325004577637 11.8406248092651
-4.32718753814697 29.8871879577637 11.7834377288818
-4.32499980926514 29.9406242370605 11.71875
-4.32281255722046 29.9953117370605 11.6590623855591
-4.32124996185303 30.0499992370605 11.5990629196167
-4.32187509536743 30.1065616607666 11.5434379577637
-4.3203125 30.1618747711182 11.4896879196167
-4.31812477111816 30.2156257629395 11.4268751144409
-4.31562519073486 30.2706241607666 11.3715629577637
-4.31374979019165 30.3274993896484 11.3206253051758
-4.31437492370605 30.3821868896484 11.2687501907349
-4.31531238555908 30.4378128051758 11.2246875762939
3.98312497138977 32.4328117370605 7.90812492370605
3.98499989509583 32.3793754577637 7.96468734741211
3.98499989509583 32.3246879577637 8.01531219482422
3.98499989509583 32.2700004577637 8.06062507629395
3.98562502861023 32.2156257629395 8.10906219482422
3.98781251907349 32.1618766784668 8.16093730926514
3.98843741416931 32.1074981689453 8.21562480926514
3.99000000953674 32.0528106689453 8.26343727111816
3.98968744277954 31.9993743896484 8.32250022888184
3.98968744277954 31.9456253051758 8.38374996185303
3.99062490463257 31.8931255340576 8.44468784332275
3.99062490463257 31.8400001525879 8.50593757629395
3.99062490463257 31.7868747711182 8.56124973297119
3.99125003814697 31.7328128814697 8.61375045776367
3.9918749332428 31.6800003051758 8.6796875
3.99093747138977 31.6278133392334 8.74625015258789
3.99093747138977 31.5759372711182 8.81718730926514
3.99343752861023 31.5259380340576 8.89812469482422
3.99687504768372 31.4775009155273 8.98624992370605
3.99937510490417 31.4300003051758 9.0834379196167
3.9996874332428 31.3824996948242 9.18093776702881
4.0006251335144 31.3353118896484 9.28281211853027
4.00281238555908 31.2893753051758 9.3959379196167
3.88531255722046 34.6199989318848 6.12593746185303
3.88625001907349 34.5553131103516 6.11124992370605
3.88656258583069 34.4909362792969 6.1009373664856
3.88625001907349 34.4296875 6.09749984741211
3.88468742370605 34.3678131103516 6.09343767166138
3.88374996185303 34.3059387207031 6.09593772888184
3.88124990463257 34.2478141784668 6.1165623664856
-4.1171875 32.3728141784668 4.34656238555908
-4.12343740463257 32.4278106689453 4.31218767166138
-4.13124990463257 32.4853134155273 4.28125
-4.13687515258789 32.5406265258789 4.24781227111816
-4.13906240463257 32.5968742370605 4.21718740463257
-4.14218759536743 32.6528129577637 4.19031238555908
-4.14312505722046 32.7081260681152 4.15625
-4.14468765258789 32.765625 4.12968730926514
-4.14468765258789 32.8234367370605 4.11250019073486
-4.14375019073486 32.8824996948242 4.09062480926514
-4.14312505722046 32.9403114318848 4.07562494277954
-4.14437484741211 32.9996871948242 4.06406259536743
-4.14437484741211 33.0574989318848 4.04156255722046
-4.14281272888184 33.1153106689453 4.01937484741211
-4.14218759536743 33.1734390258789 4.00500011444092
-4.14156246185303 33.2340621948242 3.99499988555908
-4.140625 33.2928123474121 3.98906254768372
-4.1412501335144 33.3521881103516 3.98156261444092
-4.1399998664856 33.4124984741211 3.97468757629395
-4.1399998664856 33.4721870422363 3.96718740463257
-4.13968753814697 33.5318756103516 3.95218753814697
-4.13968753814697 33.5887489318848 3.93312501907349
-4.13812494277954 33.6496887207031 3.9221875667572
-4.13718748092651 33.7099990844727 3.92031240463257
-4.13593769073486 33.7712516784668 3.92249989509583
-4.13656234741211 33.8303108215332 3.90843749046326
-4.13562488555908 33.8918762207031 3.90437507629395
-4.13500022888184 33.9521865844727 3.90468740463257
-4.13468742370605 34.0125007629395 3.90406250953674
-4.1328125 34.072811126709 3.8987500667572
-4.13312482833862 34.1343765258789 3.89281249046326
-4.13437509536743 34.1946868896484 3.89156246185303
-4.13437509536743 34.2550010681152 3.88656258583069
-4.13468742370605 34.3146858215332 3.88468742370605
-4.13468742370605 34.375 3.88406252861023
-4.13437509536743 34.4368743896484 3.88093757629395
-4.13406229019165 34.497501373291 3.88031244277954
-4.13250017166138 34.5584373474121 3.87687492370605
-4.1321873664856 34.6165618896484 3.86562490463257
-4.13250017166138 34.6793746948242 3.86906242370605
-4.13187503814697 34.7418746948242 3.87781238555908
-4.13187503814697 34.8025016784668 3.87937498092651
-4.13187503814697 34.8631248474121 3.87937498092651
-4.13156270980835 34.9249992370605 3.88062500953674
-4.13031244277954 34.9871864318848 3.88499999046326
-4.13031244277954 35.0490608215332 3.88562488555908
-4.13156270980835 35.1100006103516 3.89000010490417
-4.13156270980835 35.1725006103516 3.89406251907349
-4.13031244277954 35.2340621948242 3.89750003814697
-4.13187503814697 35.2949981689453 3.90531253814697
-4.13187503814697 35.3571891784668 3.90875005722046
-4.13062477111816 35.4196891784668 3.921875
-4.13124990463257 35.4834365844727 3.93218755722046
-4.13156270980835 35.5446891784668 3.93687510490417
-4.13031244277954 35.606876373291 3.93937492370605
-4.13156270980835 35.669376373291 3.94749999046326
-4.13156270980835 35.7312507629395 3.95499992370605
-4.12968730926514 35.7924995422363 3.95906257629395
-4.13000011444092 35.8537483215332 3.9606249332428
-4.12968730926514 35.9174995422363 3.97468757629395
-4.12874984741211 35.9815635681152 3.98562502861023
-4.12937498092651 36.0431251525879 3.99406242370605
-4.12968730926514 36.1071891784668 4.00531244277954
-4.13031244277954 36.1703109741211 4.01999998092651
-4.13031244277954 36.2346878051758 4.03375005722046
-4.12968730926514 36.2978134155273 4.05156230926514
-4.12843751907349 36.3615608215332 4.06593751907349
-4.12968730926514 36.4231262207031 4.06812477111816
-4.13062477111816 36.4853134155273 4.0787501335144
-4.1321873664856 36.5496864318848 4.09031248092651
-4.13406229019165 36.6112518310547 4.09875011444092
-4.1328125 36.6749992370605 4.11093759536743
-4.13250017166138 36.7390632629395 4.12781238555908
-4.13093757629395 36.8053131103516 4.1484375
-4.13062477111816 36.8706245422363 4.17500019073486
-4.13250017166138 36.9353141784668 4.18843746185303
-4.13124990463257 36.9987487792969 4.20531272888184
-4.1321873664856 37.064998626709 4.22812509536743
-4.13250017166138 37.1300010681152 4.25250005722046
-4.13250017166138 37.1953125 4.2734375
-4.13250017166138 37.2584381103516 4.28749990463257
-4.13156270980835 37.3224983215332 4.3046875
-4.13250017166138 37.3893737792969 4.3287501335144
-4.1328125 37.4546890258789 4.35531234741211
-4.1334376335144 37.5218734741211 4.3821873664856
-4.1334376335144 37.5868759155273 4.40812492370605
-4.13406229019165 37.6531257629395 4.43625020980835
-4.13156270980835 37.7193756103516 4.46468734741211
-4.13250017166138 37.783748626709 4.48031234741211
-4.13250017166138 37.8503112792969 4.51000022888184
-4.13093757629395 37.9174995422363 4.53937482833862
-4.13000011444092 37.9831237792969 4.56406259536743
-4.12843751907349 38.0496864318848 4.59093761444092
-4.12656259536743 38.1137504577637 4.61031246185303
-4.12750005722046 38.1818733215332 4.6478123664856
-4.12781238555908 38.2496871948242 4.67937517166138
-4.12812519073486 38.317813873291 4.71875
-4.12937498092651 38.3871879577637 4.75937509536743
-4.12906265258789 38.4546890258789 4.79406261444092
-4.12843751907349 38.5231246948242 4.83374977111816
-4.12937498092651 38.5918731689453 4.87531232833862
-4.13062477111816 38.6596870422363 4.90781259536743
-4.13250017166138 38.7259368896484 4.93937492370605
-4.1334376335144 38.7934379577637 4.97062492370605
-4.13406229019165 38.8600006103516 4.99906253814697
-4.13625001907349 38.924373626709 5.01875019073486
-4.13781261444092 38.9925003051758 5.05593729019165
-4.13781261444092 39.0618743896484 5.09406232833862
3.88031244277954 34.1896858215332 6.13843727111816
3.88000011444092 34.1324996948242 6.15906238555908
3.87906241416931 34.0750007629395 6.19062519073486
3.88031244277954 34.0175018310547 6.22343730926514
3.88031244277954 33.9612503051758 6.24906253814697
3.88093757629395 33.90625 6.28875017166138
3.8828125 33.8543739318848 6.34218740463257
3.88468742370605 33.8006248474121 6.39593744277954
3.88656258583069 33.7471885681152 6.44218730926514
3.88656258583069 33.6943740844727 6.49531269073486
-4.25281238555908 29.4565620422363 12.3168754577637
-4.25031232833862 29.5059375762939 12.225625038147
-4.24749994277954 29.5590629577637 12.140625
-4.24499988555908 29.6103134155273 12.0637502670288
-4.24249982833862 29.6628131866455 11.9893751144409
-4.23874998092651 29.7171878814697 11.9193754196167
-4.23750019073486 29.7706241607666 11.8559379577637
-4.23687505722046 29.8265628814697 11.797812461853
-4.23562479019165 29.8806247711182 11.7387504577637
-4.23343753814697 29.9346866607666 11.6778125762939
-4.23250007629395 29.9896869659424 11.6187496185303
-4.23250007629395 30.0431251525879 11.5543746948242
-4.23406267166138 30.0984382629395 11.4921875
-4.2337498664856 30.1546878814697 11.4453125
-4.23124980926514 30.2090625762939 11.3853120803833
-4.2271876335144 30.2628116607666 11.3237495422363
-4.22499990463257 30.3190631866455 11.2674999237061
3.88656258583069 33.6403121948242 6.54468727111816
3.88468742370605 33.5868759155273 6.59781265258789
3.88343739509583 33.5331268310547 6.65281248092651
3.88499999046326 33.481876373291 6.71468734741211
3.88750004768372 33.4300003051758 6.77656269073486
3.88937497138977 33.377498626709 6.83874988555908
3.89124989509583 33.325626373291 6.90312480926514
3.89156246185303 33.2743759155273 6.9681248664856
3.8903124332428 33.221248626709 7.02593755722046
3.8909375667572 33.1706237792969 7.08937501907349
3.8903124332428 33.1203117370605 7.16249990463257
3.89000010490417 33.0681266784668 7.22562503814697
3.89000010490417 33.0171890258789 7.29468727111816
3.88937497138977 32.9668731689453 7.36437511444092
3.8903124332428 32.9146881103516 7.4225001335144
3.89281249046326 32.861873626709 7.48187494277954
3.89437508583069 32.8081245422363 7.53875017166138
3.89406251907349 32.7571868896484 7.59749984741211
3.89312505722046 32.703125 7.65406227111816
3.89468741416931 32.6503143310547 7.71312522888184
3.89656257629395 32.5971870422363 7.77062511444092
3.89562511444092 32.5431251525879 7.82312488555908
3.89437508583069 32.4912490844727 7.88000011444092
3.89718747138977 32.4368743896484 7.92875003814697
3.89906239509583 32.3821868896484 7.98156261444092
3.89750003814697 32.3274993896484 8.03312492370605
-4.18499994277954 31.7040634155273 9.16906261444092
3.89625000953674 32.2724990844727 8.08031272888184
3.89781260490417 32.2174987792969 8.12656211853027
3.90093755722046 32.1631240844727 8.17218780517578
3.90343761444092 32.1096878051758 8.22500038146973
3.90374994277954 32.0546875 8.27406215667725
3.90218758583069 32.0003128051758 8.33125019073486
3.90093755722046 31.9471874237061 8.390625
-4.05124998092651 32.3609390258789 4.27187490463257
-4.05249977111816 32.4140625 4.22906255722046
-4.05656242370605 32.471248626709 4.19843769073486
-4.05937480926514 32.5271873474121 4.17062520980835
-4.05968761444092 32.583438873291 4.14218759536743
-4.06031227111816 32.6415634155273 4.12062501907349
-4.05999994277954 32.6981239318848 4.09499979019165
-4.06031227111816 32.7568740844727 4.07406234741211
-4.05999994277954 32.8146858215332 4.05749988555908
-4.05906248092651 32.8737487792969 4.0384373664856
-4.05781269073486 32.9306259155273 4.02250003814697
-4.05781269073486 32.9900016784668 4.0071873664856
-4.05718755722046 33.049373626709 3.99531245231628
-4.05687522888184 33.1074981689453 3.97749996185303
-4.0546875 33.1650009155273 3.95906257629395
-4.05312490463257 33.2253112792969 3.94749999046326
-4.05218744277954 33.2846870422363 3.93812489509583
-4.05218744277954 33.3431243896484 3.92312502861023
-4.05031251907349 33.4025001525879 3.91062498092651
-4.05000019073486 33.4625015258789 3.9065625667572
-4.05000019073486 33.5221862792969 3.89968752861023
-4.05000019073486 33.580623626709 3.88781261444092
-4.04937505722046 33.6421890258789 3.88093757629395
-4.04906272888184 33.7024993896484 3.87937498092651
-4.04781246185303 33.7625007629395 3.87406253814697
-4.04781246185303 33.8209381103516 3.85750007629395
-4.04781246185303 33.8828125 3.85593748092651
-4.04874992370605 33.9440612792969 3.85875010490417
-4.04906272888184 34.0046882629395 3.85812497138977
-4.0475001335144 34.064998626709 3.85312509536743
-4.046875 34.1268768310547 3.84999990463257
-4.0475001335144 34.1871871948242 3.8512499332428
-4.04718732833862 34.247501373291 3.84843754768372
-4.04718732833862 34.3074989318848 3.84781241416931
-4.04718732833862 34.3678131103516 3.84875011444092
-4.046875 34.4296875 3.84718751907349
-4.04656267166138 34.4903106689453 3.84812498092651
-4.04531240463257 34.5518760681152 3.84656238555908
-4.04656267166138 34.6103134155273 3.8362500667572
-4.0462498664856 34.6725006103516 3.8362500667572
-4.04374980926514 34.7346878051758 3.84187507629395
-4.04312515258789 34.7956237792969 3.84312510490417
-4.04312515258789 34.856876373291 3.84312510490417
-4.04312515258789 34.9178123474121 3.8434374332428
-4.04406261444092 34.9796867370605 3.84781241416931
-4.04437494277954 35.0406265258789 3.84937500953674
-4.04468727111816 35.1021881103516 3.85437488555908
-4.04437494277954 35.1646881103516 3.86031246185303
-4.04312515258789 35.2259368896484 3.86531257629395
-4.04437494277954 35.2874984741211 3.87718749046326
-4.04468727111816 35.3499984741211 3.88031244277954
-4.04468727111816 35.4112510681152 3.88437509536743
-4.04500007629395 35.4753112792969 3.89249992370605
-4.04468727111816 35.5374984741211 3.90281248092651
-4.04312515258789 35.5996856689453 3.90374994277954
-4.04281234741211 35.6609382629395 3.91031241416931
-4.04281234741211 35.7237510681152 3.91718745231628
-4.04281234741211 35.7871856689453 3.9293749332428
-4.04374980926514 35.8496856689453 3.93624997138977
-4.04281234741211 35.9128112792969 3.94906258583069
-4.04218769073486 35.9768753051758 3.9609375
-4.04218769073486 36.0384368896484 3.96968746185303
-4.04093742370605 36.1021881103516 3.97906255722046
-4.04218769073486 36.1656265258789 3.9918749332428
-4.04281234741211 36.2312507629395 4.01249980926514
-4.04250001907349 36.2946891784668 4.03218746185303
-4.04281234741211 36.3574981689453 4.04562520980835
-4.04312515258789 36.419376373291 4.0475001335144
-4.04281234741211 36.4812507629395 4.05656242370605
-4.04343748092651 36.5465621948242 4.0709376335144
-4.04531240463257 36.6090621948242 4.08218765258789
-4.04562520980835 36.671875 4.09156227111816
-4.04656267166138 36.7350006103516 4.10781240463257
-4.04531240463257 36.7999992370605 4.125
-4.04406261444092 36.8650016784668 4.14406251907349
-4.04656267166138 36.9300003051758 4.15843772888184
-4.04562520980835 36.9949989318848 4.18531227111816
-4.04656267166138 37.0615615844727 4.21187496185303
-4.04593753814697 37.1259384155273 4.2337498664856
-4.04562520980835 37.1915626525879 4.25343751907349
-4.046875 37.2543754577637 4.26406240463257
-4.046875 37.3181266784668 4.2806248664856
-4.0475001335144 37.3846893310547 4.30656242370605
-4.0475001335144 37.450626373291 4.33624982833862
-4.04874992370605 37.5168762207031 4.35750007629395
-4.04781246185303 37.5815620422363 4.38093757629395
-4.04718732833862 37.6484375 4.40906238555908
-4.04531240463257 37.7153129577637 4.44062519073486
-4.04656267166138 37.78125 4.46593761444092
-4.04562520980835 37.8471870422363 4.49406242370605
-4.04468727111816 37.9140625 4.52437496185303
-4.04468727111816 37.9793739318848 4.54906272888184
-4.04406261444092 38.0462493896484 4.57562494277954
-4.04187488555908 38.1103134155273 4.5943751335144
-4.04218769073486 38.1775016784668 4.62624979019165
-4.04218769073486 38.2453117370605 4.65968751907349
-4.04187488555908 38.3131256103516 4.69843769073486
-4.04312515258789 38.3818740844727 4.734375
-4.04437494277954 38.4503135681152 4.77031230926514
-4.04468727111816 38.5190620422363 4.81031227111816
-4.04562520980835 38.5878143310547 4.85187482833862
-4.046875 38.6565628051758 4.88875007629395
-4.04781246185303 38.7224998474121 4.91812515258789
-4.04906272888184 38.7896881103516 4.95031261444092
-4.04937505722046 38.8562507629395 4.98000001907349
-4.05124998092651 38.9203109741211 4.99749994277954
-4.05156230926514 38.9881248474121 5.03281259536743
-4.05187511444092 39.0590629577637 5.07937479019165
-4.05343770980835 39.127498626709 5.11968755722046
-4.05375003814697 39.1981239318848 5.16031265258789
-4.05312490463257 39.2659378051758 5.19156265258789
-4.0553126335144 39.3349990844727 5.23281240463257
-4.05999994277954 39.4068756103516 5.28375005722046
3.90187501907349 31.8940620422363 8.44593715667725
3.90406250953674 31.8396873474121 8.50031280517578
3.90437507629395 31.7859382629395 8.55375003814697
3.90437507629395 31.7321872711182 8.61093711853027
3.90499997138977 31.6796875 8.67875003814697
3.90406250953674 31.6271877288818 8.74437522888184
3.90281248092651 31.5753116607666 8.81281280517578
-4.15749979019165 29.5540618896484 12.1059379577637
-4.15500020980835 29.6053123474121 12.0309371948242
-4.15343761444092 29.6578121185303 11.9584379196167
-4.14968729019165 29.7121868133545 11.883749961853
-4.14624977111816 29.7649993896484 11.8140621185303
-4.14562511444092 29.8199996948242 11.7515621185303
-4.14624977111816 29.8743743896484 11.6928129196167
-4.14468765258789 29.9284381866455 11.6353120803833
-4.14312505722046 29.9840621948242 11.5793752670288
3.90312504768372 31.5246868133545 8.88781261444092
3.90562510490417 31.4756240844727 8.97187519073486
3.90812492370605 31.4271869659424 9.06437492370605
3.91000008583069 31.3784370422363 9.15593719482422
3.91125011444092 31.3303127288818 9.25406265258789
3.91093754768372 31.2831249237061 9.35875034332275
3.79937505722046 34.7356262207031 6.08468770980835
3.79812502861023 34.6699981689453 6.05968761444092
3.79749989509583 34.606876373291 6.04468727111816
3.79781246185303 34.5421867370605 6.03499984741211
3.79781246185303 34.4781265258789 6.02562522888184
3.79749989509583 34.4174995422363 6.02531242370605
3.79593753814697 34.356876373291 6.02874994277954
3.79562497138977 34.2962493896484 6.03687477111816
3.79500007629395 34.239688873291 6.06781244277954
3.79531240463257 34.1834373474121 6.10312509536743
3.79468750953674 34.1271858215332 6.12906265258789
3.79343748092651 34.0703125 6.1646876335144
3.79437494277954 34.0137481689453 6.20093727111816
3.79500007629395 33.9593734741211 6.23718738555908
3.79500007629395 33.9053115844727 6.27968740463257
3.7965624332428 33.8528137207031 6.33062505722046
3.79781246185303 33.799373626709 6.3821873664856
3.79812502861023 33.7459373474121 6.4303126335144
3.79843759536743 33.6931266784668 6.49093770980835
3.79843759536743 33.6399993896484 6.55000019073486
3.79781246185303 33.5875015258789 6.60781240463257
3.7971875667572 33.5334358215332 6.65968751907349
3.79781246185303 33.4824981689453 6.71906232833862
3.79968738555908 33.4318733215332 6.78687477111816
-4.11062479019165 31.6200008392334 9.4428129196167
-4.10437488555908 31.6631240844727 9.31031227111816
-4.09875011444092 31.7075004577637 9.19406223297119
-4.09531259536743 31.7546882629395 9.09218788146973
-4.09218740463257 31.7993755340576 8.97718715667725
3.80062508583069 33.380313873291 6.85624980926514
3.80124998092651 33.3296890258789 6.92749977111816
3.80281257629395 33.2793731689453 6.99687480926514
3.80281257629395 33.2275009155273 7.0618748664856
3.80312490463257 33.1775016784668 7.12843751907349
3.8043749332428 33.1268768310547 7.19906234741211
3.8046875 33.0743751525879 7.25968742370605
-3.9765625 32.4000015258789 4.13906240463257
-3.97812509536743 32.4559364318848 4.10968732833862
-3.97874999046326 32.513126373291 4.08562517166138
-3.97843742370605 32.5706253051758 4.06500005722046
-3.97781252861023 32.6296882629395 4.0475001335144
-3.9765625 32.6871871948242 4.02781248092651
-3.97593760490417 32.7465629577637 4.0071873664856
-3.97406244277954 32.8034362792969 3.98562502861023
-3.97218751907349 32.8624992370605 3.96968746185303
-3.97187495231628 32.9203109741211 3.96000003814697
-3.97125005722046 32.9799995422363 3.94812488555908
-3.96875 33.0400009155273 3.94312500953674
-3.96875 33.099063873291 3.92624998092651
-3.96624994277954 33.15625 3.90531253814697
-3.96468758583069 33.2171859741211 3.89499998092651
-3.96374988555908 33.2768745422363 3.88718748092651
-3.96281242370605 33.3349990844727 3.87343740463257
-3.9612500667572 33.393123626709 3.85374999046326
-3.9609375 33.4528121948242 3.84687495231628
-3.9606249332428 33.5128135681152 3.84312510490417
-3.96000003814697 33.5724983215332 3.8359375
-3.95875000953674 33.6343765258789 3.83093738555908
-3.95875000953674 33.6949996948242 3.83031249046326
-3.96000003814697 33.7546882629395 3.82343745231628
-3.96031260490417 33.8134384155273 3.81031250953674
-3.95968747138977 33.8743743896484 3.80531239509583
-3.95906257629395 33.9340629577637 3.80187511444092
-3.96000003814697 33.9949989318848 3.79781246185303
-3.95968747138977 34.0556259155273 3.79593753814697
-3.95875000953674 34.1175003051758 3.79781246185303
-3.95937490463257 34.1781234741211 3.79999995231628
-3.95843744277954 34.239688873291 3.79937505722046
-3.95812511444092 34.3003120422363 3.80187511444092
-3.95781254768372 34.3606262207031 3.8046875
-3.95656251907349 34.4225006103516 3.80187511444092
-3.95593738555908 34.4831237792969 3.80562496185303
-3.95593738555908 34.5446891784668 3.8050000667572
-3.95781254768372 34.6034393310547 3.79562497138977
-3.95812511444092 34.6653137207031 3.79625010490417
-3.95718741416931 34.7278137207031 3.8046875
-3.95749998092651 34.7890625 3.80781245231628
-3.95718741416931 34.8499984741211 3.80781245231628
-3.95562505722046 34.9106254577637 3.80625009536743
-3.95562505722046 34.9724998474121 3.80718755722046
-3.95562505722046 35.0328140258789 3.80781245231628
-3.95531249046326 35.0940628051758 3.81343746185303
-3.95562505722046 35.1575012207031 3.82281255722046
-3.95531249046326 35.2196884155273 3.82999992370605
-3.95531249046326 35.2809371948242 3.83937501907349
-3.95562505722046 35.3440628051758 3.84375
-3.95749998092651 35.4056243896484 3.8512499332428
-3.95781254768372 35.4693756103516 3.86062502861023
-3.95749998092651 35.5306243896484 3.8671875
-3.95687508583069 35.5931243896484 3.86968755722046
-3.95593738555908 35.6553115844727 3.8753125667572
-3.95531249046326 35.7190628051758 3.88531255722046
-3.95531249046326 35.7825012207031 3.90156245231628
-3.95562505722046 35.8450012207031 3.90750002861023
-3.95531249046326 35.9075012207031 3.91687488555908
-3.95499992370605 35.9718742370605 3.93062496185303
-3.95499992370605 36.0346870422363 3.94437503814697
-3.9534375667572 36.0974998474121 3.95499992370605
-3.95531249046326 36.1603126525879 3.96374988555908
-3.95656251907349 36.2253112792969 3.98250007629395
-3.95624995231628 36.2893753051758 4.00250005722046
-3.95843744277954 36.3521881103516 4.01749992370605
-3.95906257629395 36.4150009155273 4.02374982833862
-3.95749998092651 36.4775009155273 4.03343772888184
-3.95749998092651 36.541561126709 4.04593753814697
-3.95937490463257 36.6034393310547 4.0553126335144
-3.95968747138977 36.6659393310547 4.05937480926514
-3.96031260490417 36.7299995422363 4.07562494277954
-3.9609375 36.7949981689453 4.09781265258789
-3.95968747138977 36.8600006103516 4.1171875
-3.9612500667572 36.9249992370605 4.13312482833862
-3.95968747138977 36.9906234741211 4.16218757629395
-3.96031260490417 37.0574989318848 4.1881251335144
-3.9612500667572 37.1221885681152 4.20874977111816
-3.96000003814697 37.1868743896484 4.23000001907349
-3.96000003814697 37.2484359741211 4.23781251907349
-3.9606249332428 37.3128128051758 4.2584376335144
-3.96156239509583 37.3796882629395 4.28437519073486
-3.9609375 37.4465637207031 4.31468772888184
-3.96187496185303 37.5125007629395 4.33437490463257
-3.96187496185303 37.5768737792969 4.35750007629395
-3.96000003814697 37.6418762207031 4.38093757629395
-3.95843744277954 37.7093734741211 4.41218757629395
-3.95968747138977 37.7753143310547 4.44218730926514
-3.95968747138977 37.8409385681152 4.47093772888184
-3.95812511444092 37.9071884155273 4.49656248092651
-3.95749998092651 37.9718742370605 4.51937484741211
-3.95749998092651 38.0396881103516 4.54781246185303
-3.95468759536743 38.1053123474121 4.57437515258789
-3.95531249046326 38.1731262207031 4.60812520980835
-3.95562505722046 38.2418746948242 4.64531230926514
-3.95437502861023 38.3096885681152 4.68468761444092
-3.95687508583069 38.3762512207031 4.71374988555908
-3.95812511444092 38.4446868896484 4.74843740463257
-3.95968747138977 38.513126373291 4.78312492370605
-3.96156239509583 38.5821876525879 4.8209376335144
-3.96187496185303 38.6512489318848 4.86093759536743
-3.96218752861023 38.7174987792969 4.89156246185303
-3.96218752861023 38.7843742370605 4.92312479019165
-3.9612500667572 38.8503112792969 4.94999980926514
-3.96250009536743 38.9150009155273 4.96875
-3.9606249332428 38.9831237792969 5.00562477111816
-3.9609375 39.0543746948242 5.0553126335144
-3.96312499046326 39.1228141784668 5.09468746185303
-3.96499991416931 39.1931266784668 5.13374996185303
-3.96499991416931 39.2628135681152 5.17624998092651
-3.96531248092651 39.3328132629395 5.22187519073486
-3.9684374332428 39.4043731689453 5.27156257629395
3.8043749332428 33.0215606689453 7.31906270980835
3.80312490463257 32.9703140258789 7.38468742370605
3.8050000667572 32.9178123474121 7.44374990463257
3.80656242370605 32.8653106689453 7.50250005722046
3.80687499046326 32.8118743896484 7.55999994277954
3.80593752861023 32.7612495422363 7.62125015258789
3.80531239509583 32.7078132629395 7.68062496185303
-4.06562519073486 29.5478134155273 12.0671873092651
-4.0631251335144 29.6000003814697 11.9962501525879
-4.06125020980835 29.6528129577637 11.9253120422363
-4.05999994277954 29.7065620422363 11.8490629196167
-4.05749988555908 29.7584381103516 11.7749996185303
-4.0553126335144 29.8128128051758 11.7062501907349
-4.0553126335144 29.8675003051758 11.6453123092651
3.80625009536743 32.6549987792969 7.73843765258789
3.80968761444092 32.6015625 7.79531240463257
3.81093740463257 32.5462493896484 7.84093761444092
3.81156253814697 32.4928131103516 7.88625001907349
3.8121874332428 32.4378128051758 7.93499994277954
3.8121874332428 32.3834381103516 7.98937511444092
3.81093740463257 32.3293762207031 8.04125022888184
3.80999994277954 32.2750015258789 8.09031295776367
3.80999994277954 32.2200012207031 8.13656234741211
3.80999994277954 32.1653137207031 8.18375015258789
3.8128125667572 32.1115608215332 8.23593711853027
3.81312489509583 32.0556259155273 8.28499984741211
3.81312489509583 32.0006256103516 8.33562469482422
3.81437492370605 31.9471874237061 8.39093780517578
3.81593751907349 31.8924999237061 8.43937492370605
3.81718754768372 31.8384380340576 8.49187469482422
3.81593751907349 31.7862491607666 8.55187511444092
3.81625008583069 31.7312507629395 8.60531234741211
3.81687498092651 31.6781253814697 8.66531276702881
3.81593751907349 31.6256256103516 8.73406219482422
