# .PCD v0.7 - Point Cloud Data file format
VERSION 0.7
FIELDS x y z
SIZE 4 4 4
TYPE F F F
COUNT 1 1 1
WIDTH 939
HEIGHT 1
VIEWPOINT 0 0 0 1 0 0 0
POINTS 939
DATA ascii
11.5621871948242 10.2396879196167 -14.3940620422363
11.5628128051758 10.296875 -14.3678121566772
11.5625 10.3531246185303 -14.34375
11.563437461853 10.4121875762939 -14.3181247711182
11.5668754577637 10.4700002670288 -14.2831249237061
11.5684375762939 10.5281248092651 -14.2481250762939
11.569375038147 10.5856246948242 -14.2106246948242
11.5684375762939 10.6434373855591 -14.1731252670288
11.5699996948242 10.7025003433228 -14.1350002288818
11.5721874237061 10.7609376907349 -14.0965623855591
11.5749998092651 10.8215627670288 -14.0550003051758
11.577187538147 10.8800001144409 -14.0150003433228
11.5793752670288 10.9375 -13.9753122329712
11.5799999237061 10.9953126907349 -13.9506254196167
11.5806245803833 11.0528125762939 -13.9290628433228
11.5825004577637 11.1121873855591 -13.8968753814697
11.5840625762939 11.1703128814697 -13.8500003814697
11.5856246948242 11.2296876907349 -13.803750038147
11.5871877670288 11.2878122329712 -13.7681245803833
11.5878124237061 11.3471870422363 -13.7331247329712
11.5881252288818 11.4065628051758 -13.6878128051758
11.5903129577637 11.4653129577637 -13.6437501907349
11.594687461853 11.5246877670288 -13.6078128814697
11.5974998474121 11.5831251144409 -13.5593748092651
11.6000003814697 11.6424999237061 -13.5159378051758
11.6021871566772 11.702187538147 -13.4762496948242
11.6031246185303 11.7603120803833 -13.4375
11.6031246185303 11.8199996948242 -13.3968753814697
11.6049995422363 11.8800001144409 -13.3478126525879
11.6071872711182 11.9399995803833 -13.2987499237061
11.6087503433228 12 -13.2506246566772
11.6118745803833 12.0600004196167 -13.202187538147
11.6143751144409 12.1196870803833 -13.1499996185303
11.6171875 12.1796875 -13.100625038147
11.6203126907349 12.2381248474121 -13.0481252670288
11.625 12.2996873855591 -12.9943752288818
11.6268749237061 12.3596878051758 -12.9312496185303
11.6303129196167 12.4200000762939 -12.8762502670288
11.633749961853 12.4799995422363 -12.8225002288818
11.6387500762939 12.5421876907349 -12.7584371566772
11.6424999237061 12.6021871566772 -12.694375038147
11.6456251144409 12.6625003814697 -12.6331253051758
11.6496877670288 12.7228126525879 -12.5775003433228
11.6543750762939 12.7849998474121 -12.5190620422363
11.6575002670288 12.8478126525879 -12.4312496185303
11.6625003814697 12.9103126525879 -12.3403129577637
11.6674995422363 12.9746875762939 -12.2475004196167
11.6724996566772 13.038125038147 -12.1506252288818
11.6778125762939 13.1028127670288 -12.053750038147
11.6837501525879 13.1671876907349 -11.9640626907349
11.694375038147 13.2303123474121 -11.8640623092651
11.7043752670288 13.2953128814697 -11.7581253051758
11.7134370803833 13.360312461853 -11.6515626907349
11.7168750762939 13.4253120422363 -11.5403127670288
18.6515617370605 4.71500015258789 -8.98750019073486
18.6534366607666 4.65937519073486 -8.95593738555908
18.6556243896484 4.60312509536743 -8.9115629196167
11.9553127288818 1.48281252384186 -7.01718759536743
11.9549999237061 1.53999996185303 -7.06093740463257
11.9559373855591 1.5974999666214 -7.10249996185303
11.9546871185303 1.65499997138977 -7.15156269073486
11.9534378051758 1.71218752861023 -7.1946873664856
11.952187538147 1.76812505722046 -7.23250007629395
11.9509372711182 1.82500004768372 -7.27124977111816
11.9490623474121 1.88218748569489 -7.31718730926514
11.9449996948242 1.93812501430511 -7.37031269073486
11.9425001144409 1.99687504768372 -7.41625022888184
11.9409370422363 2.05281257629395 -7.46218729019165
11.9390621185303 2.1096875667572 -7.51468753814697
11.9350004196167 2.16531252861023 -7.55906248092651
11.9321870803833 2.22250008583069 -7.60812520980835
11.928750038147 2.27999997138977 -7.65781259536743
11.9256248474121 2.33750009536743 -7.70406246185303
11.9250001907349 2.39468741416931 -7.7506251335144
11.9221878051758 2.45031261444092 -7.79406261444092
11.9178123474121 2.5074999332428 -7.83218765258789
11.9168748855591 2.56500005722046 -7.86187505722046
11.9174995422363 2.62218761444092 -7.89281272888184
18.6603126525879 4.54718732833862 -8.86812496185303
18.6646881103516 4.49031257629395 -8.828125
18.6674995422363 4.43468761444092 -8.79062461853027
18.6703128814697 4.37781238555908 -8.75093746185303
18.6728134155273 4.32250022888184 -8.70625019073486
18.6768741607666 4.26718759536743 -8.65781211853027
18.6781253814697 4.2103123664856 -8.61812496185303
18.6812496185303 4.15468740463257 -8.57374954223633
18.6859378814697 4.09781265258789 -8.52437496185303
18.2653121948242 10.8103122711182 -13.2478122711182
11.8968753814697 3.70499992370605 -8.38875007629395
11.8924999237061 3.75937509536743 -8.50468730926514
11.889687538147 3.81312489509583 -8.62062454223633
11.8856248855591 3.8675000667572 -8.72156238555908
11.881875038147 3.92249989509583 -8.81531238555908
11.881875038147 3.97749996185303 -8.89968776702881
11.8793754577637 4.03218746185303 -8.99156284332275
11.8746871948242 4.08718729019165 -9.07406234741211
11.8699998855591 4.14218759536743 -9.14624977111816
11.8675003051758 4.19781255722046 -9.20437526702881
11.8634376525879 4.25281238555908 -9.26781272888184
11.8615627288818 4.30749988555908 -9.34249973297119
11.8571872711182 4.36250019073486 -9.40531253814697
11.8512496948242 4.41812515258789 -9.45906257629395
11.8493747711182 4.47437477111816 -9.49781227111816
11.8490629196167 4.53031253814697 -9.54749965667725
11.8474998474121 4.58562517166138 -9.60499954223633
11.8456249237061 4.64187479019165 -9.66843795776367
11.8443746566772 4.69687509536743 -9.73062515258789
11.8396873474121 4.75093746185303 -9.77468776702881
11.8356246948242 4.80687522888184 -9.82187461853027
11.8321876525879 4.86250019073486 -9.87468719482422
11.827187538147 4.91781234741211 -9.93093776702881
11.8256254196167 4.97281265258789 -9.99531269073486
11.8253126144409 5.02781248092651 -10.0559377670288
11.8228120803833 5.08281230926514 -10.1140623092651
11.8203125 5.13781261444092 -10.172812461853
11.8143749237061 5.19250011444092 -10.2349996566772
11.813437461853 5.24749994277954 -10.2987499237061
11.8143749237061 5.30187511444092 -10.3653125762939
11.8128128051758 5.35562515258789 -10.4421873092651
11.8093748092651 5.40999984741211 -10.5287504196167
11.8065624237061 5.46250009536743 -10.6237497329712
11.8015623092651 5.51531267166138 -10.7312498092651
11.796875 5.56750011444092 -10.850625038147
11.7940626144409 5.61843729019165 -10.9700002670288
11.7859373092651 5.67281246185303 -11.0609378814697
11.780312538147 5.72687482833862 -11.1462497711182
11.7771873474121 5.78031253814697 -11.2331247329712
11.7737503051758 5.83312511444092 -11.3103122711182
11.7740621566772 5.88749980926514 -11.3728122711182
11.774374961853 5.94250011444092 -11.4253120422363
11.774374961853 5.99718761444092 -11.4659376144409
11.7749996185303 6.05281257629395 -11.4925003051758
11.7749996185303 6.109375 -11.5178127288818
11.7740621566772 6.16499996185303 -11.5553121566772
11.7721872329712 6.22031259536743 -11.5934371948242
11.7674999237061 6.27500009536743 -11.6412496566772
11.7600002288818 6.32906246185303 -11.7075004577637
18.2606258392334 10.7515621185303 -13.2937498092651
18.2596874237061 10.6925001144409 -13.3371877670288
18.2581253051758 10.6334371566772 -13.3778123855591
18.2556247711182 10.5765628814697 -13.4093751907349
18.2506256103516 10.5178127288818 -13.4425001144409
18.2478122711182 10.4596872329712 -13.4668750762939
18.2471866607666 10.4009370803833 -13.4846878051758
18.2459373474121 10.3453121185303 -13.4940624237061
18.2456245422363 10.2893753051758 -13.4987497329712
18.2453117370605 10.2331247329712 -13.5024995803833
18.2453117370605 10.1768751144409 -13.5037498474121
18.2456245422363 10.1206245422363 -13.5037498474121
11.6171875 7.30562496185303 -14.9109373092651
11.6134376525879 7.36031246185303 -14.9525003433228
11.6112499237061 7.41499996185303 -14.9881248474121
11.6115627288818 7.46968746185303 -15.015625
11.6099996566772 7.52250003814697 -15.0415620803833
11.6099996566772 7.57593727111816 -15.078125
11.6081247329712 7.6321873664856 -15.1018753051758
11.608437538147 7.6875 -15.1137504577637
11.6078128814697 7.7421875 -15.1237497329712
11.6078128814697 7.79718732833862 -15.1315622329712
11.6078128814697 7.85249996185303 -15.1428127288818
11.6078128814697 7.90781259536743 -15.1481246948242
11.6075000762939 7.96437501907349 -15.1515626907349
11.6075000762939 8.01968765258789 -15.163125038147
11.6075000762939 8.07468795776367 -15.172812461853
11.6071872711182 8.13062477111816 -15.1781253814697
11.6071872711182 8.18656253814697 -15.1768751144409
11.6068754196167 8.24187469482422 -15.1750001907349
11.6056251525879 8.29749965667725 -15.1674995422363
11.6056251525879 8.35312461853027 -15.1565628051758
11.6049995422363 8.40999984741211 -15.1496877670288
11.6056251525879 8.46656227111816 -15.1431245803833
11.6056251525879 8.52250003814697 -15.1281251907349
11.6056251525879 8.57781219482422 -15.1168746948242
11.6075000762939 8.63500022888184 -15.1021871566772
11.6078128814697 8.69218730926514 -15.092812538147
11.6099996566772 8.74781227111816 -15.0756254196167
11.610312461853 8.8046875 -15.0581245422363
11.6121873855591 8.86156272888184 -15.0431251525879
11.6143751144409 8.91781234741211 -15.0331249237061
11.6143751144409 8.97468757629395 -15.0212497711182
11.6153125762939 9.03156280517578 -14.9975004196167
11.6168746948242 9.08781242370605 -14.9753122329712
11.618124961853 9.14500045776367 -14.9490623474121
11.6178121566772 9.20250034332275 -14.9268751144409
11.6193752288818 9.25937461853027 -14.9109373092651
11.6199998855591 9.31531238555908 -14.891562461853
11.6206245422363 9.3725004196167 -14.8640623092651
11.6215629577637 9.4296875 -14.8459377288818
11.6221876144409 9.48593711853027 -14.8262500762939
11.6221876144409 9.5443754196167 -14.7934379577637
11.6225004196167 9.60062503814697 -14.7678127288818
11.625 9.65937519073486 -14.7512502670288
11.6271877288818 9.71531295776367 -14.7212495803833
11.6278123855591 9.77281284332275 -14.6837501525879
11.6281251907349 9.83187484741211 -14.6525001525879
11.6284370422363 9.88843727111816 -14.6284370422363
11.6303129196167 9.94718742370605 -14.5974998474121
11.631875038147 10.0050001144409 -14.5609378814697
11.6328125 10.0625 -14.5256252288818
11.6353120803833 10.1199998855591 -14.5003128051758
11.6390628814697 10.1778125762939 -14.4665622711182
11.6393747329712 10.2371873855591 -14.4396877288818
11.6412496566772 10.2943754196167 -14.4087495803833
11.640625 10.350625038147 -14.3781251907349
11.640625 10.4096870422363 -14.3543748855591
11.6421871185303 10.467812538147 -14.3234376907349
11.6440620422363 10.5268745422363 -14.2825002670288
11.6484375 10.5846872329712 -14.243124961853
11.649374961853 10.6418752670288 -14.2087497711182
11.6499996185303 10.6999998092651 -14.1737499237061
11.6509370803833 10.7581253051758 -14.1350002288818
11.6528129577637 10.819375038147 -14.0934371948242
11.655312538147 10.8774995803833 -14.0568752288818
11.6575002670288 10.9350004196167 -14.0203123092651
11.6578121185303 10.9925003051758 -13.9921875
11.6578121185303 11.0503120422363 -13.9653129577637
11.6599998474121 11.1096878051758 -13.9309377670288
11.6625003814697 11.1678123474121 -13.8874998092651
11.6643753051758 11.2268753051758 -13.8450002670288
11.6653127670288 11.2849998474121 -13.8074998855591
11.6662502288818 11.3431253433228 -13.7740621566772
11.6656246185303 11.4028129577637 -13.7287502288818
11.6665620803833 11.4624996185303 -13.6824998855591
11.671875 11.522500038147 -13.6412496566772
11.6753120422363 11.5815620422363 -13.5950002670288
11.6781253814697 11.6403121948242 -13.5531253814697
11.6803121566772 11.6996879577637 -13.5131254196167
11.6818752288818 11.7581253051758 -13.469687461853
11.6818752288818 11.8175001144409 -13.4278125762939
11.6831245422363 11.8774995803833 -13.383749961853
11.6853122711182 11.9375 -13.3387498855591
11.6868753433228 11.9971876144409 -13.2890625
11.688437461853 12.0574998855591 -13.2356252670288
11.6912498474121 12.1175003051758 -13.1837501525879
11.6946878433228 12.1771879196167 -13.1331253051758
11.6981248855591 12.2356252670288 -13.0793752670288
11.702187538147 12.2971878051758 -13.024374961853
11.7043752670288 12.3575000762939 -12.9643745422363
11.7090625762939 12.4174995422363 -12.9093751907349
11.7124996185303 12.4778127670288 -12.8528127670288
11.7156248092651 12.5393753051758 -12.7875003814697
11.7193746566772 12.5987501144409 -12.7309379577637
11.7224998474121 12.6596870422363 -12.6678123474121
11.725625038147 12.7203121185303 -12.6053123474121
11.7303123474121 12.7828121185303 -12.5418748855591
11.7359371185303 12.8465623855591 -12.4553127288818
11.7421875 12.9084377288818 -12.3684377670288
11.7475004196167 12.9724998474121 -12.2749996185303
11.7524995803833 13.0371875762939 -12.1724996566772
11.7574996948242 13.1018753051758 -12.0740623474121
11.7628126144409 13.1653127670288 -11.984375
11.7709379196167 13.2284374237061 -11.8850002288818
11.7806253433228 13.2943754196167 -11.7765626907349
11.7893753051758 13.359375 -11.6693754196167
11.7931251525879 13.4234371185303 -11.5606250762939
18.2471866607666 10.0646877288818 -13.4993753433228
18.2484378814697 10.0096874237061 -13.4825000762939
12.0384378433228 1.42687499523163 -6.96437501907349
12.0378122329712 1.48281252384186 -7.01531267166138
12.0365629196167 1.53999996185303 -7.05781269073486
12.0356254577637 1.59718751907349 -7.09937477111816
12.0349998474121 1.65499997138977 -7.14343738555908
12.0334377288818 1.71249997615814 -7.18249988555908
12.032187461853 1.7693749666214 -7.22312498092651
12.0309371948242 1.82531249523163 -7.2649998664856
12.0296878814697 1.88218748569489 -7.30656242370605
12.0256252288818 1.93843746185303 -7.3587498664856
12.0240621566772 1.99687504768372 -7.40749979019165
12.022500038147 2.05281257629395 -7.4537501335144
12.0212497711182 2.1096875667572 -7.5071873664856
12.0181245803833 2.16562509536743 -7.5553126335144
12.0171871185303 2.22281241416931 -7.60624980926514
12.0168752670288 2.27999997138977 -7.6568751335144
12.015625 2.33750009536743 -7.70874977111816
12.0128126144409 2.39468741416931 -7.76406240463257
12.0081253051758 2.45031261444092 -7.81125020980835
12.0037498474121 2.5074999332428 -7.85249996185303
12.0015621185303 2.56468749046326 -7.88906240463257
11.999062538147 2.62062501907349 -7.92218732833862
11.9971876144409 2.67781257629395 -7.94156265258789
11.9959373474121 2.73499989509583 -7.97249984741211
11.9949998855591 2.79250001907349 -8.0053129196167
18.2509384155273 9.95468711853027 -13.4640626907349
18.2549991607666 9.89937496185303 -13.4478120803833
18.2549991607666 9.84281253814697 -13.4390621185303
18.2540626525879 9.78781223297119 -13.4262504577637
18.2546882629395 9.73406219482422 -13.4049997329712
18.2559375762939 9.67843723297119 -13.3731250762939
11.9818754196167 3.70499992370605 -8.38218784332275
11.9784374237061 3.75999999046326 -8.48281288146973
11.9778127670288 3.81437492370605 -8.60000038146973
11.9737501144409 3.86812496185303 -8.70499992370605
11.969687461853 3.92281246185303 -8.79406261444092
11.9668750762939 3.97781252861023 -8.87406253814697
11.9631252288818 4.03249979019165 -8.95874977111816
11.9596872329712 4.08781242370605 -9.04218769073486
11.9546871185303 4.14312505722046 -9.12031269073486
11.9512500762939 4.19937515258789 -9.17781257629395
11.9471874237061 4.25437498092651 -9.23531246185303
11.9449996948242 4.30781269073486 -9.30562496185303
11.9421873092651 4.36312484741211 -9.37531280517578
11.9375 4.41937494277954 -9.43656253814697
11.9356250762939 4.47562503814697 -9.47218704223633
11.9328126907349 4.5318751335144 -9.51843738555908
11.930624961853 4.58718729019165 -9.57374954223633
11.9296875 4.64249992370605 -9.6328125
11.9271879196167 4.69750022888184 -9.7006254196167
11.9231252670288 4.75218772888184 -9.74968719482422
11.9203128814697 4.80749988555908 -9.79812526702881
11.9168748855591 4.86312484741211 -9.84875011444092
11.9125003814697 4.91937494277954 -9.90250015258789
11.9112501144409 4.97468757629395 -9.96593761444092
11.9118747711182 5.02968740463257 -10.0253124237061
11.9099998474121 5.08468770980835 -10.0900001525879
11.9075002670288 5.13937520980835 -10.1568746566772
11.9009370803833 5.19312477111816 -10.2153129577637
11.8981246948242 5.24781227111816 -10.2746877670288
11.897500038147 5.30249977111816 -10.3371877670288
11.8962497711182 5.35718727111816 -10.4125003814697
11.8912496566772 5.41187477111816 -10.4959373474121
11.8893747329712 5.46468734741211 -10.5903129577637
11.8862495422363 5.51749992370605 -10.6978120803833
11.8840627670288 5.5696873664856 -10.8175001144409
11.8812503814697 5.62031269073486 -10.9371871948242
11.8712501525879 5.67437505722046 -11.03125
11.8637504577637 5.72812509536743 -11.1118745803833
11.860312461853 5.78218746185303 -11.1925001144409
11.8578128814697 5.8353123664856 -11.2681245803833
11.8578128814697 5.8899998664856 -11.3340625762939
11.8575000762939 5.9446873664856 -11.3815622329712
11.8568754196167 5.99843740463257 -11.4134378433228
11.8571872711182 6.0546875 -11.4406251907349
11.8571872711182 6.11062479019165 -11.4734373092651
11.8575000762939 6.16718769073486 -11.5084371566772
11.8565626144409 6.22249984741211 -11.5424995422363
11.8515625 6.27687501907349 -11.5865621566772
11.84375 6.33062505722046 -11.6549997329712
18.2596874237061 9.62437534332275 -13.3337497711182
18.2621879577637 9.56968784332275 -13.3028125762939
18.2643756866455 9.51531219482422 -13.2784376144409
11.8109378814697 6.53249979019165 -12.2315626144409
11.8071870803833 6.58500003814697 -12.329062461853
18.265625 9.46156215667725 -13.2462501525879
18.2687492370605 9.40593719482422 -13.2231254577637
18.2696876525879 9.35249996185303 -13.1909370422363
18.2700004577637 9.2993745803833 -13.1456251144409
18.2728118896484 9.24499988555908 -13.1071872711182
18.2749996185303 9.19062519073486 -13.0690622329712
18.2762508392334 9.13718795776367 -13.0368747711182
11.6978120803833 7.30749988555908 -14.8890628814697
11.6946878433228 7.36187505722046 -14.930624961853
11.6921873092651 7.41531229019165 -14.9674997329712
11.6906251907349 7.46968746185303 -14.9993753433228
11.6887502670288 7.52250003814697 -15.0309371948242
11.6890621185303 7.57593727111816 -15.069375038147
11.6881246566772 7.6321873664856 -15.0934371948242
11.688437461853 7.68718767166138 -15.1128120422363
11.6875 7.74062490463257 -15.1334371566772
11.6871871948242 7.79562520980835 -15.1424999237061
11.6871871948242 7.8521876335144 -15.1521873474121
11.6868753433228 7.90749979019165 -15.1559371948242
11.6859378814697 7.96281242370605 -15.155312538147
11.686562538147 8.01781272888184 -15.1640625
11.686562538147 8.07312488555908 -15.1762504577637
11.6850004196167 8.12906265258789 -15.188437461853
11.6850004196167 8.18343734741211 -15.1946878433228
11.6846876144409 8.23843765258789 -15.1996879577637
11.6846876144409 8.29531288146973 -15.1975002288818
11.6846876144409 8.35187530517578 -15.1887502670288
11.6834373474121 8.40750026702881 -15.178750038147
11.6846876144409 8.46312522888184 -15.1721878051758
11.6846876144409 8.52000045776367 -15.1587495803833
11.6850004196167 8.5756254196167 -15.1468753814697
11.6871871948242 8.63249969482422 -15.131875038147
11.6878128051758 8.68968772888184 -15.1265621185303
11.6887502670288 8.74562454223633 -15.109375
11.6881246566772 8.8021879196167 -15.0893745422363
11.688437461853 8.85812473297119 -15.0743751525879
11.6899995803833 8.91499996185303 -15.0628128051758
11.6906251907349 8.97218704223633 -15.0506248474121
11.6921873092651 9.02812480926514 -15.0296878814697
11.6949996948242 9.08500003814697 -15.0074996948242
11.696249961853 9.14281272888184 -14.9828128814697
11.6956253051758 9.19999980926514 -14.9634370803833
11.6959371566772 9.25718784332275 -14.9456253051758
11.6975002288818 9.31312465667725 -14.922812461853
11.6996879577637 9.36999988555908 -14.8981246948242
11.7003126144409 9.42781257629395 -14.8809375762939
11.6999998092651 9.48468780517578 -14.8637504577637
11.6999998092651 9.54218769073486 -14.8384370803833
11.7006254196167 9.59812545776367 -14.813437461853
11.7025003433228 9.65687465667725 -14.7931251525879
11.7046871185303 9.71312522888184 -14.7621879577637
11.7056245803833 9.77031230926514 -14.7237501144409
11.7068748474121 9.82968711853027 -14.6906251907349
11.7075004577637 9.88687515258789 -14.6640625
11.7093753814697 9.94499969482422 -14.6346874237061
11.7103128433228 10.0024995803833 -14.6015625
11.7106246948242 10.0600004196167 -14.5681247711182
11.7128124237061 10.1175003051758 -14.5415620803833
11.7168750762939 10.1753120422363 -14.5028123855591
11.71875 10.234375 -14.4746875762939
11.7203121185303 10.2906246185303 -14.4512500762939
11.7200002670288 10.3478126525879 -14.4184379577637
11.719687461853 10.407187461853 -14.3878126144409
11.7184371948242 10.4653129577637 -14.360312461853
11.7206249237061 10.5246877670288 -14.3178129196167
11.7253122329712 10.5821876525879 -14.2825002670288
11.7278127670288 10.6384372711182 -14.2487497329712
11.7296876907349 10.6975002288818 -14.211874961853
11.7315626144409 10.7559375762939 -14.1724996566772
11.7331247329712 10.8168754577637 -14.1296873092651
11.7346878051758 10.875 -14.0912504196167
11.7365627288818 10.9321870803833 -14.0603122711182
11.7365627288818 10.9899997711182 -14.0334377288818
11.7359371185303 11.047812461853 -14.0018749237061
11.7378120422363 11.1071872711182 -13.9640626907349
11.7403125762939 11.164999961853 -13.9243745803833
11.7421875 11.2231254577637 -13.8868751525879
11.7428121566772 11.282187461853 -13.8500003814697
11.7434377670288 11.3406248092651 -13.8106250762939
11.7443752288818 11.4003124237061 -13.7671871185303
11.7453126907349 11.460000038147 -13.7268753051758
11.7503128051758 11.5196876525879 -13.6828126907349
11.7546873092651 11.5784378051758 -13.6365623474121
11.7584371566772 11.6374998092651 -13.5918750762939
11.7593746185303 11.6975002288818 -13.5474996566772
11.7596874237061 11.756875038147 -13.5006246566772
11.7590627670288 11.8153123855591 -13.4593753814697
11.7621879577637 11.875 -13.4196872711182
11.764687538147 11.9346876144409 -13.3756246566772
11.7659378051758 11.9937496185303 -13.3256254196167
11.7674999237061 12.0543746948242 -13.2703123092651
11.7712497711182 12.1146879196167 -13.2146873474121
11.7734375 12.1746873855591 -13.1599998474121
11.7771873474121 12.2331247329712 -13.1075000762939
11.7818746566772 12.2946872711182 -13.0524997711182
11.7843751907349 12.3549995422363 -12.9943752288818
11.7878122329712 12.414999961853 -12.9412498474121
11.7912502288818 12.4753122329712 -12.8850002288818
11.7931251525879 12.5371875762939 -12.8190622329712
11.795937538147 12.5971870422363 -12.7621879577637
11.7996873855591 12.6575002670288 -12.6987495422363
11.8031253814697 12.7181253433228 -12.6321878433228
11.8087501525879 12.7806253433228 -12.5637502670288
11.8162498474121 12.8450002670288 -12.4734373092651
11.8225002288818 12.907187461853 -12.3874998092651
11.8275003433228 12.9706249237061 -12.2965621948242
11.8328123092651 13.0349998474121 -12.1971874237061
11.8374996185303 13.1000003814697 -12.0993747711182
11.842812538147 13.1643753051758 -12.0028123855591
11.8503122329712 13.2278127670288 -11.9015626907349
11.859375 13.2928123474121 -11.7943754196167
11.8665628433228 13.3578128814697 -11.6846876144409
11.8690624237061 13.422812461853 -11.5775003433228
18.2803115844727 9.08218765258789 -13.0056247711182
18.2824993133545 9.02781295776367 -12.9734373092651
18.2868747711182 8.97312545776367 -12.9440622329712
18.2912502288818 8.9193754196167 -12.9121875762939
12.124062538147 1.42687499523163 -6.97218751907349
12.1243753433228 1.48281252384186 -7.02312517166138
12.1228122711182 1.53968751430511 -7.06843757629395
12.1184377670288 1.59625005722046 -7.11062479019165
12.1168746948242 1.65468752384186 -7.14375019073486
12.1146879196167 1.71249997615814 -7.17281246185303
12.1131248474121 1.7696875333786 -7.21187496185303
12.1125001907349 1.82531249523163 -7.25093746185303
12.1112499237061 1.88250005245209 -7.28812503814697
12.1059379577637 1.93968749046326 -7.33812522888184
12.1028127670288 1.99718749523163 -7.39249992370605
12.1003122329712 2.05312490463257 -7.4459376335144
12.1000003814697 2.10999989509583 -7.49593734741211
12.0996875762939 2.16718745231628 -7.5390625
12.1000003814697 2.22437500953674 -7.58343744277954
12.1018753051758 2.28031253814697 -7.63374996185303
12.1028127670288 2.33750009536743 -7.68937492370605
12.1009378433228 2.39468741416931 -7.75624990463257
12.0978126525879 2.45031261444092 -7.81593751907349
12.0950002670288 2.5074999332428 -7.86531257629395
12.09375 2.56468749046326 -7.90374994277954
12.0900001525879 2.62031245231628 -7.93312501907349
12.0890626907349 2.67750000953674 -7.95281267166138
12.0874996185303 2.73499989509583 -7.98843765258789
12.0862503051758 2.79218745231628 -8.02781295776367
18.2934379577637 8.86343765258789 -12.8793754577637
18.2934379577637 8.80937480926514 -12.8406248092651
18.2953128814697 8.7553129196167 -12.8078126907349
18.2971878051758 8.69999980926514 -12.7834377288818
18.2981243133545 8.64531230926514 -12.7578125
18.2987499237061 8.58968734741211 -12.7290620803833
12.069375038147 3.70531249046326 -8.36906242370605
12.0646877288818 3.76031255722046 -8.46281242370605
12.0596876144409 3.81531238555908 -8.57656288146973
12.055624961853 3.86937499046326 -8.67562484741211
12.0540628433228 3.92437505722046 -8.75562477111816
12.0503120422363 3.97906255722046 -8.84312534332275
12.0471878051758 4.03343772888184 -8.93281269073486
12.0437498092651 4.08937501907349 -9.01156234741211
12.0362501144409 4.14468765258789 -9.08531284332275
12.0315628051758 4.19999980926514 -9.14718723297119
12.0284376144409 4.25468730926514 -9.21781253814697
12.0275001525879 4.30843734741211 -9.29125022888184
12.0265626907349 4.36437511444092 -9.35781288146973
12.0212497711182 4.42031240463257 -9.4140625
12.0178127288818 4.47687482833862 -9.44718742370605
12.0153121948242 4.53249979019165 -9.4921875
12.014687538147 4.58750009536743 -9.54812526702881
12.0140628814697 4.64281272888184 -9.61499977111816
12.0109376907349 4.69781255722046 -9.68937492370605
12.0081253051758 4.75250005722046 -9.73812484741211
12.0062503814697 4.80812501907349 -9.77781295776367
12.0012502670288 4.86437511444092 -9.82250022888184
11.9981250762939 4.92000007629395 -9.875
11.9981250762939 4.97531270980835 -9.93937492370605
11.9981250762939 5.03031253814697 -10.0040626525879
11.9946870803833 5.0853123664856 -10.071249961853
11.991250038147 5.14031267166138 -10.131875038147
11.9875001907349 5.1946873664856 -10.1796875
11.9840621948242 5.2493748664856 -10.234375
11.9809379577637 5.30312490463257 -10.3043746948242
11.9790620803833 5.35781240463257 -10.3843746185303
11.9737501144409 5.41249990463257 -10.4615621566772
11.9734373092651 5.46562480926514 -10.5531253814697
11.9724998474121 5.51937484741211 -10.6599998474121
11.9709377288818 5.57156229019165 -10.7806253433228
11.9684371948242 5.62125015258789 -10.9040622711182
11.9593753814697 5.67531251907349 -11.0024995803833
11.9509372711182 5.73000001907349 -11.0768747329712
11.9456253051758 5.78468751907349 -11.1440620422363
11.9431247711182 5.83781242370605 -11.2112503051758
11.9425001144409 5.89249992370605 -11.2740621566772
11.9403123855591 5.94718742370605 -11.3196878433228
11.9375 6.0006251335144 -11.3543748855591
11.938437461853 6.05687522888184 -11.3918752670288
11.9390621185303 6.11281251907349 -11.4265623092651
11.9399995803833 6.16906261444092 -11.4621877670288
11.9399995803833 6.22437477111816 -11.4981250762939
11.9356250762939 6.27874994277954 -11.5309371948242
11.9296875 6.33343744277954 -11.5871877670288
18.2996883392334 8.53343772888184 -12.702187538147
18.3012504577637 8.47999954223633 -12.6734371185303
18.3043746948242 8.42468738555908 -12.6484375
11.8999996185303 6.53499984741211 -12.1565628051758
11.8965625762939 6.58937501907349 -12.2365627288818
11.8903121948242 6.64187479019165 -12.3209371566772
18.3075008392334 8.37031269073486 -12.6237497329712
18.3093757629395 8.31468772888184 -12.6018753051758
18.3118743896484 8.26000022888184 -12.5793752670288
18.3159370422363 8.20468711853027 -12.5578126907349
18.3184375762939 8.14999961853027 -12.5365629196167
18.3171882629395 8.09468746185303 -12.5012502670288
11.7781248092651 7.30812501907349 -14.859375
11.7749996185303 7.36250019073486 -14.9068746566772
11.7731246948242 7.41562509536743 -14.9459371566772
11.7718753814697 7.46999979019165 -14.9815626144409
11.7696876525879 7.52312517166138 -15.0190620422363
11.7687501907349 7.57718753814697 -15.0578126907349
11.7674999237061 7.63250017166138 -15.0862503051758
11.766562461853 7.68718767166138 -15.1137504577637
11.765625 7.74031257629395 -15.1390628814697
11.765625 7.79531240463257 -15.1525001525879
11.765625 7.8521876335144 -15.1615629196167
11.7653121948242 7.90718746185303 -15.1653127670288
11.7650003433228 7.96218729019165 -15.1662502288818
11.7637500762939 8.01718711853027 -15.1734371185303
11.7631254196167 8.07218742370605 -15.1828126907349
11.7618751525879 8.12781238555908 -15.196249961853
11.7628126144409 8.18249988555908 -15.2068748474121
11.7618751525879 8.23781204223633 -15.211874961853
11.7634372711182 8.29468727111816 -15.2131252288818
11.764687538147 8.35031223297119 -15.2103128433228
11.7637500762939 8.40531253814697 -15.1987495422363
11.764687538147 8.4609375 -15.1946878433228
11.7631254196167 8.51906204223633 -15.1881246566772
11.7634372711182 8.57468795776367 -15.1771879196167
11.7668752670288 8.63062477111816 -15.1609373092651
11.7668752670288 8.68781280517578 -15.1556253433228
11.7659378051758 8.74437522888184 -15.1421871185303
11.766562461853 8.80000019073486 -15.125937461853
11.7671871185303 8.85562515258789 -15.1143751144409
11.7678127288818 8.91281223297119 -15.1037502288818
11.7678127288818 8.96968746185303 -15.0903129577637
11.7690620422363 9.02562522888184 -15.0706253051758
11.7721872329712 9.08281230926514 -15.0462503433228
11.7737503051758 9.14156246185303 -15.0221872329712
11.7746877670288 9.1978120803833 -15.0037498474121
11.7749996185303 9.25500011444092 -14.975625038147
11.7759370803833 9.31187534332275 -14.9481248855591
11.7787504196167 9.36812496185303 -14.9265623092651
11.7793750762939 9.42656230926514 -14.9109373092651
11.7781248092651 9.48281288146973 -14.8959379196167
11.7781248092651 9.53968715667725 -14.8756246566772
11.7793750762939 9.59562492370605 -14.852499961853
11.780312538147 9.65468788146973 -14.8253126144409
11.7825002670288 9.71187496185303 -14.7965621948242
11.7843751907349 9.7681245803833 -14.7634372711182
11.7853126525879 9.82687473297119 -14.7321872711182
11.7859373092651 9.88374996185303 -14.7046871185303
11.7878122329712 9.94218730926514 -14.672812461853
11.7890625 10 -14.6371879577637
11.7893753051758 10.0574998855591 -14.6003122329712
11.7906246185303 10.1149997711182 -14.5728120803833
11.7934379577637 10.172812461853 -14.5371875762939
11.795937538147 10.2318754196167 -14.5100002288818
11.7990627288818 10.288125038147 -14.4899997711182
11.7996873855591 10.3453121185303 -14.4606246948242
11.7990627288818 10.4046878814697 -14.4243745803833
11.796875 10.4628124237061 -14.3953123092651
11.7996873855591 10.5221872329712 -14.3553123474121
11.8040628433228 10.5796871185303 -14.3221874237061
11.8062496185303 10.6362495422363 -14.2859373092651
11.8081245422363 10.6965627670288 -14.2446870803833
11.8106250762939 10.7546873092651 -14.2049999237061
11.813437461853 10.8143749237061 -14.1653127670288
11.8128128051758 10.8721876144409 -14.1300001144409
11.813437461853 10.9284372329712 -14.1015625
11.813437461853 10.9871873855591 -14.0737495422363
11.8146877288818 11.0453128814697 -14.0340623855591
11.8171873092651 11.1046876907349 -13.9946870803833
11.8190622329712 11.1625003814697 -13.961874961853
11.8206253051758 11.2203121185303 -13.9265623092651
11.8221874237061 11.2799997329712 -13.8900003433228
11.8221874237061 11.3396873474121 -13.8418750762939
11.8228120803833 11.399374961853 -13.797812461853
11.8240623474121 11.4578123092651 -13.7609376907349
11.829062461853 11.5174999237061 -13.7131252288818
11.8325004577637 11.5765628814697 -13.6668748855591
11.8353128433228 11.6353120803833 -13.6253128051758
11.8359375 11.6949996948242 -13.5837497711182
11.8374996185303 11.7546873092651 -13.5362501144409
11.8381252288818 11.8128128051758 -13.4899997711182
11.8418750762939 11.8725004196167 -13.4490623474121
11.844687461853 11.9324998855591 -13.4059371948242
11.8462495803833 11.9918746948242 -13.3606252670288
11.8465623855591 12.0506248474121 -13.3131246566772
11.8500003814697 12.1106252670288 -13.2562503814697
11.852499961853 12.171875 -13.196249961853
11.8556251525879 12.2309379577637 -13.1393747329712
11.8596878051758 12.2921876907349 -13.0837497711182
11.8625001907349 12.352499961853 -13.0265626907349
11.8653125762939 12.4125003814697 -12.9715623855591
11.8684377670288 12.4728126525879 -12.9143753051758
11.8718748092651 12.5346870422363 -12.850625038147
11.875 12.5950002670288 -12.7928123474121
11.8781251907349 12.6556253433228 -12.7268753051758
11.8828125 12.7171878814697 -12.6575002670288
11.8887500762939 12.7799997329712 -12.585000038147
11.8956251144409 12.8440628051758 -12.4909372329712
11.9021873474121 12.9059371948242 -12.4018745422363
11.9078121185303 12.969687461853 -12.3087501525879
11.9137496948242 13.0331249237061 -12.2128124237061
11.9178123474121 13.0978126525879 -12.1153125762939
11.9231252670288 13.1628122329712 -12.0171871185303
11.9303121566772 13.2271871566772 -11.913125038147
11.9381246566772 13.2924995422363 -11.8024997711182
11.9449996948242 13.3575000762939 -11.6931247711182
11.9490623474121 13.4221878051758 -11.586874961853
18.3159370422363 8.04031276702881 -12.4709377288818
18.3168754577637 7.98468732833862 -12.4556245803833
18.3212509155273 7.92937517166138 -12.4412498474121
12.2109375 1.36781251430511 -6.94312477111816
12.2081251144409 1.42656254768372 -6.98250007629395
12.2071876525879 1.48281252384186 -7.02687501907349
12.2046871185303 1.53999996185303 -7.06531238555908
12.1999998092651 1.59687495231628 -7.10406255722046
12.1978120803833 1.65499997138977 -7.13500022888184
12.1959371566772 1.71249997615814 -7.16750001907349
12.1953125 1.7696875333786 -7.20843744277954
12.1946878433228 1.82531249523163 -7.24968767166138
12.1925001144409 1.88250005245209 -7.28749990463257
12.1881246566772 1.94000005722046 -7.32937479019165
12.1831245422363 1.99749994277954 -7.3756251335144
12.1793746948242 2.0543749332428 -7.4212498664856
12.1790628433228 2.11031246185303 -7.46406269073486
12.1809377670288 2.16750001907349 -7.51312494277954
12.1815624237061 2.22468757629395 -7.56781244277954
12.1846876144409 2.28062510490417 -7.62375020980835
12.1868753433228 2.33781242370605 -7.67531251907349
12.1853122711182 2.39468741416931 -7.73187494277954
12.1850004196167 2.45062494277954 -7.79343748092651
12.1846876144409 2.5074999332428 -7.85531234741211
18.3231258392334 7.87343740463257 -12.4200000762939
18.3253116607666 7.81906270980835 -12.3943748474121
18.3278121948242 7.76281261444092 -12.3721876144409
18.3315620422363 7.70781230926514 -12.3512496948242
18.3328132629395 7.65250015258789 -12.3175001144409
18.3334369659424 7.59718751907349 -12.2909374237061
18.3356246948242 7.54250001907349 -12.2584371566772
12.1543750762939 3.70656251907349 -8.36124992370605
12.1484375 3.76187491416931 -8.44124984741211
12.1387500762939 3.81625008583069 -8.53156280517578
12.1353120803833 3.86875009536743 -8.6353120803833
12.1350002288818 3.92281246185303 -8.72718715667725
12.1321878433228 3.97843742370605 -8.81875038146973
12.1300001144409 4.03437519073486 -8.90843772888184
12.1265621185303 4.09000015258789 -8.98750019073486
12.1199998855591 4.14499998092651 -9.06156253814697
12.116250038147 4.19999980926514 -9.12625026702881
12.1125001907349 4.25531244277954 -9.20218753814697
12.1112499237061 4.30968761444092 -9.27499961853027
12.1109371185303 4.36499977111816 -9.33156204223633
12.1065626144409 4.42062520980835 -9.38562488555908
12.1009378433228 4.4771876335144 -9.43031215667725
12.0978126525879 4.53249979019165 -9.47937488555908
12.0974998474121 4.58812522888184 -9.52906227111816
12.0971870422363 4.64437484741211 -9.59000015258789
12.0971870422363 4.69937515258789 -9.65531253814697
12.0950002670288 4.75343751907349 -9.7006254196167
12.0921878814697 4.80937480926514 -9.74374961853027
12.086874961853 4.86499977111816 -9.79625034332275
12.0821876525879 4.92062520980835 -9.85062503814697
12.0787496566772 4.97687482833862 -9.90812492370605
12.0784378051758 5.03218746185303 -9.96906280517578
12.0778121948242 5.08718729019165 -10.0343751907349
12.0768747329712 5.14187479019165 -10.0921878814697
12.0737495422363 5.19562482833862 -10.1450004577637
12.0684375762939 5.25031232833862 -10.2034378051758
12.0646877288818 5.30499982833862 -10.2734375
12.0625 5.3600001335144 -10.3487501144409
12.0593748092651 5.41437482833862 -10.4231252670288
12.0612497329712 5.46750020980835 -10.5128126144409
12.0612497329712 5.52031230926514 -10.6146879196167
12.0584373474121 5.57281255722046 -10.7268753051758
12.0543746948242 5.62312507629395 -10.8474998474121
12.045937538147 5.67749977111816 -10.9481248855591
12.0390625 5.73250007629395 -11.0203123092651
12.0331249237061 5.78718757629395 -11.0828123092651
12.0296878814697 5.84031248092651 -11.1484375
12.0293750762939 5.89499998092651 -11.2131252288818
12.0271873474121 5.94968748092651 -11.2612495422363
12.0253124237061 6.00281238555908 -11.3000001907349
12.0271873474121 6.05812501907349 -11.3468751907349
12.0268745422363 6.11437511444092 -11.3796873092651
12.0256252288818 6.16906261444092 -11.4106254577637
12.0256252288818 6.22531270980835 -11.4340629577637
12.0221872329712 6.28156232833862 -11.4571876525879
12.0171871185303 6.3353123664856 -11.5081253051758
18.3384380340576 7.48750019073486 -12.2221870422363
18.3400001525879 7.43249988555908 -12.1893749237061
18.3412494659424 7.37750005722046 -12.1515626907349
11.9881248474121 6.53781270980835 -12.0834379196167
11.9849996566772 6.59218740463257 -12.1634378433228
11.9796876907349 6.64499998092651 -12.2456245422363
11.9737501144409 6.69781255722046 -12.3262500762939
11.9640626907349 6.75031232833862 -12.4031248092651
18.3456249237061 7.32312488555908 -12.1056251525879
18.3496875762939 7.26937484741211 -12.0578126907349
18.3546867370605 7.21500015258789 -12.0071878433228
18.3596878051758 7.16187477111816 -11.9509372711182
11.8596878051758 7.30999994277954 -14.8287496566772
11.8559379577637 7.36437511444092 -14.8778123855591
11.8546876907349 7.41750001907349 -14.9206247329712
11.852499961853 7.47187519073486 -14.9615621566772
11.8509378433228 7.52468729019165 -14.9993753433228
11.8512496948242 7.57781267166138 -15.0393753051758
11.8496875762939 7.6328125 -15.0734376907349
11.8487501144409 7.68718767166138 -15.1065626144409
11.8471870422363 7.74062490463257 -15.1356248855591
11.8471870422363 7.79531240463257 -15.1590623855591
11.8468751907349 7.85187482833862 -15.1737499237061
11.8456249237061 7.9056248664856 -15.1846876144409
11.8462495803833 7.9603123664856 -15.1912498474121
11.844687461853 8.01531219482422 -15.1987495422363
11.8443746566772 8.07062530517578 -15.2034378051758
11.8443746566772 8.12718772888184 -15.2131252288818
11.8456249237061 8.1821870803833 -15.2221870422363
11.844687461853 8.23750019073486 -15.2246875762939
11.8465623855591 8.2943754196167 -15.2287502288818
11.8471870422363 8.34968757629395 -15.2337503433228
11.8468751907349 8.40468788146973 -15.2246875762939
11.8462495803833 8.46000003814697 -15.2181253433228
11.842812538147 8.51749992370605 -15.2109375
11.842812538147 8.57312488555908 -15.2018747329712
11.8462495803833 8.62968730926514 -15.1903123855591
11.8450002670288 8.68687534332275 -15.1837501525879
11.8431253433228 8.74250030517578 -15.1731252670288
11.8434371948242 8.79812526702881 -15.1609373092651
11.8450002670288 8.85468769073486 -15.1506252288818
11.8471870422363 8.91187477111816 -15.1387500762939
11.8478126525879 8.96812534332275 -15.1246871948242
11.8490629196167 9.02437496185303 -15.1078128814697
11.8518753051758 9.0806245803833 -15.0843753814697
11.8540620803833 9.13937473297119 -15.0578126907349
11.8543748855591 9.1953125 -15.0378122329712
11.8546876907349 9.25281238555908 -15.0093746185303
11.8549995422363 9.30968761444092 -14.9862499237061
11.8559379577637 9.36562538146973 -14.9634370803833
11.8568754196167 9.4243745803833 -14.9418754577637
11.8571872711182 9.48062515258789 -14.9243745803833
11.8575000762939 9.53718757629395 -14.9043750762939
11.8578128814697 9.59343719482422 -14.8859376907349
11.858437538147 9.65218734741211 -14.8631248474121
11.8606252670288 9.70968723297119 -14.8387498855591
11.8631248474121 9.76593780517578 -14.8081245422363
11.8649997711182 9.82468795776367 -14.7765626907349
11.866250038147 9.88218784332275 -14.7406253814697
11.8668746948242 9.94031238555908 -14.7049999237061
11.8659372329712 9.9975004196167 -14.6753120422363
11.8665628433228 10.0550003051758 -14.6434373855591
11.8699998855591 10.1125001907349 -14.6134376525879
11.8737497329712 10.1703128814697 -14.578125
11.875 10.2296876907349 -14.5500001907349
11.8771877288818 10.2868747711182 -14.5253124237061
11.8774995803833 10.3431253433228 -14.4984378814697
11.8778123855591 10.4021873474121 -14.461874961853
11.8768749237061 10.4603128433228 -14.4321870803833
11.8778123855591 10.5196876525879 -14.3946876525879
11.8803129196167 10.5775003433228 -14.3565626144409
11.881875038147 10.6350002288818 -14.3178129196167
11.8862495422363 10.694375038147 -14.2771873474121
11.8893747329712 10.7512502670288 -14.2446870803833
11.8912496566772 10.8106250762939 -14.2062501907349
11.8909378051758 10.8693752288818 -14.1678123474121
11.8931245803833 10.9259376525879 -14.1328125
11.8924999237061 10.9849996566772 -14.1018753051758
11.8931245803833 11.0428123474121 -14.0656251907349
11.8946876525879 11.1021871566772 -14.0265626907349
11.8962497711182 11.1599998474121 -13.9921875
11.899374961853 11.2181253433228 -13.9553127288818
11.9012498855591 11.2775001525879 -13.9206247329712
11.9009370803833 11.3374996185303 -13.8734378814697
11.9028129577637 11.3971872329712 -13.8328123092651
11.9046878814697 11.4553127288818 -13.7971878051758
11.9078121185303 11.514687538147 -13.7481250762939
11.9106254577637 11.5731248855591 -13.7056245803833
11.9140625 11.6324996948242 -13.663125038147
11.914999961853 11.6925001144409 -13.6187496185303
11.9171876907349 11.7521877288818 -13.5706253051758
11.9178123474121 11.8103122711182 -13.5253124237061
11.9203128814697 11.8699998855591 -13.4849996566772
11.922812461853 11.9300003051758 -13.4396877288818
11.9253120422363 11.9896879196167 -13.3943748474121
11.9268751144409 12.0481252670288 -13.3468751907349
11.9293746948242 12.1081247329712 -13.2931251525879
11.9324998855591 12.1696872711182 -13.2331247329712
11.9350004196167 12.2296876907349 -13.1700000762939
11.9381246566772 12.2903127670288 -13.1128120422363
11.9409370422363 12.3500003814697 -13.061562538147
11.9449996948242 12.4103126525879 -13.0065622329712
11.9475002288818 12.4703121185303 -12.9453125
11.9509372711182 12.532187461853 -12.8800001144409
11.9546871185303 12.592812538147 -12.8215627670288
11.9578123092651 12.6543750762939 -12.7546873092651
11.9615621566772 12.7153129577637 -12.6856250762939
11.9665622711182 12.7781248092651 -12.6071872711182
11.9746875762939 12.8424997329712 -12.508749961853
11.9821872711182 12.905312538147 -12.4115629196167
11.9875001907349 12.9693746566772 -12.3140621185303
11.9928121566772 13.0328121185303 -12.2209377288818
11.9978122711182 13.0971870422363 -12.125937461853
12.0050001144409 13.1621875762939 -12.0253124237061
12.0121879577637 13.2259378433228 -11.9196872711182
12.0200004577637 13.2921876907349 -11.8100004196167
12.0271873474121 13.3571872711182 -11.7034378051758
12.0340623855591 13.420937538147 -11.5956249237061
12.0396871566772 13.4875001907349 -11.4796876907349
18.3643741607666 7.10718727111816 -11.8918752670288
18.3675003051758 7.05312490463257 -11.8328123092651
18.3700008392334 7.00031232833862 -11.7681245803833
18.375 6.94687509536743 -11.7037496566772
12.2924995422363 1.36749994754791 -6.9603123664856
12.289999961853 1.42531251907349 -7.00093746185303
12.2893753051758 1.48249995708466 -7.046875
12.2856254577637 1.53968751430511 -7.08312511444092
12.28125 1.59593749046326 -7.12031269073486
12.2809371948242 1.65468752384186 -7.15374994277954
12.280312538147 1.71249997615814 -7.19093751907349
12.2793750762939 1.7693749666214 -7.22312498092651
12.2778129577637 1.82531249523163 -7.25281238555908
12.2756252288818 1.88250005245209 -7.28812503814697
12.2734375 1.94000005722046 -7.32781267166138
12.2687501907349 1.99749994277954 -7.36499977111816
12.2653121948242 2.0546875 -7.40374994277954
12.265625 2.11062502861023 -7.44812488555908
12.2687501907349 2.16750001907349 -7.49593734741211
12.2668752670288 2.22499990463257 -7.53749990463257
12.2643747329712 2.28218746185303 -7.58374977111816
12.2624998092651 2.33937501907349 -7.62937498092651
12.2609376907349 2.39562511444092 -7.6803126335144
12.2618751525879 2.45187497138977 -7.74562501907349
12.2643747329712 2.5081250667572 -7.80968761444092
18.3793754577637 6.89249992370605 -11.6453123092651
18.3824996948242 6.83937501907349 -11.5953121185303
12.2362499237061 3.70499992370605 -8.35750007629395
12.2287502288818 3.76031255722046 -8.42625045776367
12.2171878814697 3.81531238555908 -8.49593734741211
12.2124996185303 3.86937499046326 -8.59843730926514
12.2096872329712 3.92343759536743 -8.70156288146973
12.210000038147 3.97937488555908 -8.79312515258789
12.2103128433228 4.03499984741211 -8.88593769073486
12.2062501907349 4.09000015258789 -8.96812534332275
12.2003126144409 4.14499998092651 -9.04218769073486
12.1978120803833 4.20062494277954 -9.10218715667725
12.1956253051758 4.25656270980835 -9.17093753814697
12.1956253051758 4.31031227111816 -9.25
12.1934375762939 4.36562490463257 -9.31187534332275
12.1899995803833 4.421875 -9.36499977111816
12.1853122711182 4.47749996185303 -9.41281223297119
12.1812496185303 4.53281259536743 -9.4609375
12.1796875 4.58937501907349 -9.51000022888184
12.1793746948242 4.64499998092651 -9.56687545776367
12.1824998855591 4.69999980926514 -9.6274995803833
12.1809377670288 4.75468730926514 -9.66781234741211
12.1768751144409 4.81031227111816 -9.7134370803833
12.170937538147 4.86562490463257 -9.77031230926514
12.1659374237061 4.921875 -9.82718753814697
12.1618747711182 4.97749996185303 -9.8803129196167
12.1618747711182 5.03249979019165 -9.93343734741211
12.1618747711182 5.08781242370605 -9.99156284332275
12.1609373092651 5.14281272888184 -10.0474996566772
12.157187461853 5.19718742370605 -10.1053123474121
12.1521873474121 5.25218772888184 -10.163125038147
12.1484375 5.30718755722046 -10.2281246185303
12.1471872329712 5.36187505722046 -10.2981252670288
12.1462497711182 5.41562509536743 -10.3725004196167
12.1462497711182 5.46968746185303 -10.4493751525879
12.1440620422363 5.5228123664856 -10.5431251525879
12.1403121948242 5.57625007629395 -10.6556253433228
12.1393747329712 5.62624979019165 -10.7781248092651
12.1328125 5.67999982833862 -10.8865623474121
12.1265621185303 5.7350001335144 -10.9621877670288
12.1203126907349 5.78937482833862 -11.0206251144409
12.1149997711182 5.84281253814697 -11.0778121948242
12.1146879196167 5.89750003814697 -11.147500038147
12.1140623092651 5.95218753814697 -11.202187538147
12.1143751144409 6.00531244277954 -11.2462501525879
12.1159372329712 6.06031227111816 -11.2921876907349
12.1128120422363 6.1171875 -11.3096876144409
12.1090621948242 6.17218732833862 -11.3337497711182
12.1087503433228 6.22812509536743 -11.3571872711182
12.1075000762939 6.28437519073486 -11.3871879577637
12.1021871566772 6.33812522888184 -11.4293746948242
18.3875007629395 6.78468751907349 -11.539999961853
18.3912506103516 6.73000001907349 -11.4862499237061
18.3943748474121 6.67656230926514 -11.4328126907349
12.0756254196167 6.54093742370605 -12.0118751525879
12.0734376907349 6.59468746185303 -12.1034374237061
12.0675001144409 6.6478123664856 -12.1790628433228
12.0618753433228 6.70187520980835 -12.241250038147
