# .PCD v0.7 - Point Cloud Data file format
VERSION 0.7
FIELDS x y z
SIZE 4 4 4
TYPE F F F
COUNT 1 1 1
WIDTH 937
HEIGHT 1
VIEWPOINT 0 0 0 1 0 0 0
POINTS 937
DATA ascii
12.3996877670288 1.20218753814697 -6.46468734741211
12.397500038147 1.25999999046326 -6.48656272888184
12.3962497711182 1.31749999523163 -6.50218772888184
12.3950004577637 1.37531244754791 -6.50937509536743
12.3928127288818 1.43468749523163 -6.52374982833862
12.3918752670288 1.49249994754791 -6.546875
12.3900003433228 1.54968750476837 -6.56624984741211
21.7278118133545 4.36250019073486 -7.38312482833862
21.7328128814697 4.30749988555908 -7.30031251907349
21.7371883392334 4.25250005722046 -7.22406244277954
21.7418746948242 4.19718742370605 -7.14718770980835
12.2815628051758 3.453125 -9.11406230926514
12.2775001525879 3.50937509536743 -9.18093776702881
12.2737503051758 3.56500005722046 -9.24593734741211
12.2684373855591 3.61999988555908 -9.31375026702881
12.266562461853 3.67562508583069 -9.37843704223633
12.2631254196167 3.73187494277954 -9.4506254196167
12.2603120803833 3.78718757629395 -9.51531219482422
12.258749961853 3.84093761444092 -9.57999992370605
12.2546873092651 3.89687490463257 -9.64812469482422
12.2521877288818 3.95218753814697 -9.7134370803833
12.2503128051758 4.00750017166138 -9.78062534332275
12.2453126907349 4.06281232833862 -9.85312461853027
12.2403125762939 4.1178126335144 -9.93406295776367
12.2356252670288 4.17281246185303 -10.0118751525879
12.2315626144409 4.22781229019165 -10.0762500762939
12.2318754196167 4.28218746185303 -10.149374961853
12.2303123474121 4.33687496185303 -10.2240629196167
12.2250003814697 4.39093732833862 -10.3015623092651
12.2212495803833 4.44687509536743 -10.3628120422363
12.2193746566772 4.50250005722046 -10.4134378433228
12.2168750762939 4.55749988555908 -10.4612503051758
12.2150001525879 4.61281251907349 -10.5071878433228
12.211874961853 4.66906261444092 -10.553750038147
12.2090625762939 4.72312498092651 -10.5900001525879
12.2093753814697 4.77968740463257 -10.6221876144409
12.2090625762939 4.8353123664856 -10.649374961853
12.204062461853 4.89218759536743 -10.6768751144409
12.2034378051758 4.94750022888184 -10.7109375
12.204062461853 5.00281238555908 -10.735312461853
12.2025003433228 5.05968761444092 -10.7546873092651
12.2006254196167 5.11562490463257 -10.7678127288818
12.2003126144409 5.1725001335144 -10.7712497711182
12.1996879577637 5.22968769073486 -10.7778129577637
12.1993751525879 5.28531265258789 -10.7862501144409
12.1984376907349 5.34218740463257 -10.8021879196167
12.1996879577637 5.3984375 -10.8196878433228
12.1999998092651 5.45499992370605 -10.8265628814697
12.1978120803833 5.51249980926514 -10.8253126144409
12.1959371566772 5.5696873664856 -10.8268747329712
12.1975002288818 5.62468767166138 -10.835000038147
12.1990623474121 5.68062496185303 -10.8512496948242
12.1996879577637 5.73750019073486 -10.8596878051758
12.1996879577637 5.79468727111816 -10.8653125762939
12.1993751525879 5.8509373664856 -10.8678121566772
12.1996879577637 5.90781259536743 -10.866250038147
12.2003126144409 5.96531248092651 -10.8665628433228
12.2025003433228 6.02250003814697 -10.8590621948242
12.2043752670288 6.07999992370605 -10.8493747711182
12.2025003433228 6.13687515258789 -10.8509378433228
12.196249961853 6.19281244277954 -10.8725004196167
12.1975002288818 6.25031232833862 -10.8693752288818
12.1993751525879 6.30718755722046 -10.8609371185303
12.2006254196167 6.36343765258789 -10.8565626144409
12.2025003433228 6.42093753814697 -10.8453121185303
12.203125 6.47937488555908 -10.8406248092651
12.2034378051758 6.53531265258789 -10.8346872329712
12.2053127288818 6.59250020980835 -10.8256254196167
12.2065620422363 6.65000009536743 -10.8181247711182
12.2056245803833 6.70749998092651 -10.8140621185303
12.2056245803833 6.7649998664856 -10.8068752288818
12.2062501907349 6.82250022888184 -10.7971878051758
12.2078123092651 6.88031244277954 -10.7828121185303
12.2096872329712 6.9375 -10.7637500762939
12.2103128433228 6.99499988555908 -10.7540626525879
12.2109375 7.05249977111816 -10.7493753433228
12.2121877670288 7.1100001335144 -10.7265625
12.2121877670288 7.16781234741211 -10.7090625762939
12.211874961853 7.22687482833862 -10.6956253051758
12.211874961853 7.28281259536743 -10.6856250762939
12.2103128433228 7.34062480926514 -10.670937538147
12.211874961853 7.39937496185303 -10.6565628051758
12.2121877670288 7.45531272888184 -10.6512498855591
12.2115621566772 7.51249980926514 -10.649374961853
12.2103128433228 7.57000017166138 -10.6443748474121
12.2093753814697 7.62781238555908 -10.6384372711182
12.2081251144409 7.68499994277954 -10.6265621185303
12.2096872329712 7.74312496185303 -10.6034374237061
12.211874961853 7.80156230926514 -10.5865621566772
12.2128124237061 7.85812520980835 -10.5721874237061
12.2140626907349 7.91531229019165 -10.5578126907349
12.2153129577637 7.97281265258789 -10.5484371185303
12.2174997329712 8.03062534332275 -10.5359373092651
12.2193746566772 8.08968734741211 -10.5174999237061
12.2193746566772 8.14750003814697 -10.5037498474121
12.2200002670288 8.20499992370605 -10.4799995422363
12.2203121185303 8.2631254196167 -10.4646873474121
12.2206249237061 8.32187461853027 -10.4449996948242
12.2212495803833 8.37843704223633 -10.4187498092651
12.2231254577637 8.43687534332275 -10.3943748474121
12.2237501144409 8.49531269073486 -10.3796873092651
12.2250003814697 8.5546875 -10.3546876907349
12.2250003814697 8.61312484741211 -10.3278121948242
12.2259378433228 8.671875 -10.3028125762939
12.2268753051758 8.73031234741211 -10.2728128433228
12.2278127670288 8.78968715667725 -10.2409372329712
12.2299995422363 8.84718704223633 -10.2128124237061
12.2318754196167 8.90531253814697 -10.1875
12.2321872711182 8.96468734741211 -10.1559371948242
12.2315626144409 9.02312469482422 -10.1256246566772
12.2325000762939 9.08281230926514 -10.0893745422363
12.234375 9.14249992370605 -10.045937538147
12.2378120422363 9.20250034332275 -10.0031251907349
12.2403125762939 9.26218795776367 -9.95812511444092
12.2446870803833 9.3203125 -9.91343784332275
12.2496871948242 9.38000011444092 -9.87031269073486
12.2518749237061 9.4399995803833 -9.82374954223633
12.2531251907349 9.50031280517578 -9.77624988555908
12.2534370422363 9.5600004196167 -9.73812484741211
12.2540626525879 9.61999988555908 -9.70218753814697
12.2562503814697 9.68000030517578 -9.66062545776367
12.2606248855591 9.7396879196167 -9.61593723297119
12.2653121948242 9.79781246185303 -9.57874965667725
12.2668752670288 9.85750007629395 -9.53812503814697
12.2681245803833 9.91749954223633 -9.48999977111816
12.2718753814697 9.97749996185303 -9.44999980926514
12.2756252288818 10.0378122329712 -9.39937496185303
12.2799997329712 10.0993747711182 -9.34312534332275
12.2834377288818 10.1599998474121 -9.28781223297119
12.2887496948242 10.2200002670288 -9.23718738555908
12.2909374237061 10.2806253433228 -9.1640625
12.2931251525879 10.3424997329712 -9.09312534332275
12.296875 10.4046878814697 -9.0287504196167
12.3021879196167 10.4671878814697 -8.96374988555908
12.3078126907349 10.5287504196167 -8.89500045776367
12.3125 10.5918750762939 -8.81406211853027
21.8243751525879 1.83749997615814 -6.30093765258789
21.8240623474121 1.77843749523163 -6.32250022888184
21.8199996948242 1.72031247615814 -6.34187507629395
21.8156242370605 1.66250002384186 -6.35343742370605
21.8140621185303 1.60468745231628 -6.3665623664856
21.8115615844727 1.54499995708466 -6.38843727111816
12.5024995803833 -0.595000028610229 -5.85187482833862
12.5012502670288 -0.537500023841858 -5.87781238555908
12.5028123855591 -0.479999989271164 -5.9068751335144
12.5059375762939 -0.422500014305115 -5.9296875
12.508749961853 -0.364687502384186 -5.93937492370605
12.5100002288818 -0.305312514305115 -5.9537501335144
12.5081253051758 -0.247500002384186 -5.96500015258789
12.5065622329712 -0.189687505364418 -5.98093748092651
12.5024995803833 -0.130624994635582 -6.00656270980835
12.4993753433228 -0.0743750035762787 -6.03000020980835
12.5018749237061 -0.017187500372529 -6.05093765258789
12.5050001144409 0.0421875007450581 -6.0618748664856
12.5074996948242 0.100312501192093 -6.07156229019165
12.5078125 0.159687504172325 -6.08187484741211
12.508749961853 0.217812493443489 -6.10125017166138
12.506875038147 0.277187496423721 -6.11812496185303
12.506875038147 0.33500000834465 -6.13062477111816
12.5065622329712 0.392500013113022 -6.15124988555908
12.5046873092651 0.449999988079071 -6.17312479019165
12.500937461853 0.508125007152557 -6.18718767166138
12.4987497329712 0.567187488079071 -6.2103123664856
12.499062538147 0.624687492847443 -6.22843742370605
12.4956245422363 0.680937528610229 -6.25437498092651
12.493124961853 0.739687502384186 -6.26968765258789
12.4921875 0.797500014305115 -6.29031229019165
12.491250038147 0.855624973773956 -6.3274998664856
12.4925003051758 0.912500023841858 -6.36156272888184
12.4956245422363 0.970000028610229 -6.3990626335144
12.4956245422363 1.0275000333786 -6.41531229019165
12.4937496185303 1.08500003814697 -6.43468761444092
12.4940624237061 1.14281249046326 -6.45156240463257
12.4934377670288 1.20218753814697 -6.46531248092651
12.4909372329712 1.25999999046326 -6.4837498664856
12.4865627288818 1.31749999523163 -6.50437498092651
12.4825000762939 1.37531244754791 -6.52156257629395
12.4793748855591 1.43468749523163 -6.53343772888184
12.477499961853 1.4921875 -6.55562496185303
12.4762496948242 1.54875004291534 -6.57124996185303
21.8075008392334 1.48562502861023 -6.42468738555908
21.8040618896484 1.42750000953674 -6.45781230926514
21.8037490844727 1.37000000476837 -6.46999979019165
12.3637504577637 3.45468759536743 -9.06718730926514
12.360312461853 3.51062488555908 -9.12531280517578
12.3575000762939 3.56687498092651 -9.1850004196167
12.3531246185303 3.62218761444092 -9.25218772888184
12.350625038147 3.67750000953674 -9.3203125
12.3478126525879 3.73312497138977 -9.39156246185303
12.3450002670288 3.7890625 -9.45374965667725
12.342812538147 3.84281253814697 -9.52062511444092
12.3384370803833 3.89781260490417 -9.59437465667725
12.3346872329712 3.953125 -9.66031265258789
12.3315620422363 4.00937509536743 -9.72937488555908
12.328125 4.06500005722046 -9.80093765258789
12.3249998092651 4.11999988555908 -9.87906265258789
12.3218746185303 4.17500019073486 -9.95781230926514
12.3178129196167 4.22937488555908 -10.03125
12.3149995803833 4.28281259536743 -10.1140623092651
12.3118753433228 4.33750009536743 -10.196249961853
12.3078126907349 4.39218759536743 -10.2721872329712
12.3046875 4.44750022888184 -10.3343753814697
12.3018751144409 4.50250005722046 -10.3940620422363
12.2981252670288 4.55749988555908 -10.4496879577637
12.296875 4.61312484741211 -10.4962501525879
12.2946872711182 4.66937494277954 -10.5431251525879
12.2921876907349 4.72312498092651 -10.5803127288818
12.2909374237061 4.77968740463257 -10.6106252670288
12.2912502288818 4.8353123664856 -10.6359376907349
12.2875003814697 4.89218759536743 -10.6665620803833
12.2856254577637 4.94750022888184 -10.7075004577637
12.2853126525879 5.00312519073486 -10.7331247329712
12.2843751907349 5.05968761444092 -10.7543754577637
12.282187461853 5.11531257629395 -10.7746877670288
12.2818746566772 5.1725001335144 -10.7799997329712
12.2809371948242 5.22968769073486 -10.7840623855591
12.280312538147 5.28531265258789 -10.7893753051758
12.2799997329712 5.34250020980835 -10.8021879196167
12.282187461853 5.3990626335144 -10.8199996948242
12.2834377288818 5.45531272888184 -10.8199996948242
12.2818746566772 5.51249980926514 -10.8240623474121
12.2796878814697 5.56906270980835 -10.8387498855591
12.2793750762939 5.62343740463257 -10.8465623855591
12.2787504196167 5.67999982833862 -10.8559379577637
12.280312538147 5.73750019073486 -10.8568754196167
12.2818746566772 5.79500007629395 -10.8575000762939
12.2828121185303 5.8521876335144 -10.8553123474121
12.2846870422363 5.90968751907349 -10.8471870422363
12.2828121185303 5.96687507629395 -10.8487501144409
12.2815628051758 6.02250003814697 -10.8543748855591
12.28125 6.07968759536743 -10.8559379577637
12.2831249237061 6.13718748092651 -10.8487501144409
12.2778129577637 6.19281244277954 -10.8693752288818
12.2790622711182 6.25 -10.866250038147
12.2828121185303 6.30749988555908 -10.8537502288818
12.2856254577637 6.36468744277954 -10.8409376144409
12.2865629196167 6.42218732833862 -10.8287496566772
12.2871875762939 6.47968769073486 -10.8221874237061
12.2884378433228 6.53531265258789 -10.8165626525879
12.2890625 6.59250020980835 -10.8087501525879
12.288125038147 6.65000009536743 -10.8009376525879
12.2875003814697 6.70749998092651 -10.7990627288818
12.2878122329712 6.7649998664856 -10.795937538147
12.2878122329712 6.82250022888184 -10.782187461853
12.2893753051758 6.88000011444092 -10.7756252288818
12.2903127670288 6.9375 -10.7668752670288
12.2915620803833 6.99499988555908 -10.7546873092651
12.2918748855591 7.05249977111816 -10.7462501525879
12.2918748855591 7.1100001335144 -10.7246875762939
12.2903127670288 7.16781234741211 -10.7087497711182
12.289999961853 7.22687482833862 -10.6959371566772
12.2896871566772 7.28281259536743 -10.6871871948242
12.2887496948242 7.34031248092651 -10.6731252670288
12.2906246185303 7.3990626335144 -10.6587495803833
12.2924995422363 7.45531272888184 -10.6509370803833
12.2921876907349 7.51249980926514 -10.6484375
12.2906246185303 7.57000017166138 -10.6421871185303
12.2906246185303 7.62750005722046 -10.6387500762939
12.2906246185303 7.68499994277954 -10.6365623474121
12.2924995422363 7.74249982833862 -10.6221876144409
12.2943754196167 7.80031251907349 -10.6040620803833
12.2946872711182 7.85750007629395 -10.5840625762939
12.2953128814697 7.91499996185303 -10.5665626525879
12.296875 7.97249984741211 -10.5546875
12.2990627288818 8.03031253814697 -10.5406246185303
12.2990627288818 8.08937454223633 -10.5234375
12.2981252670288 8.14718723297119 -10.5106248855591
12.2996873855591 8.20499992370605 -10.4818754196167
12.3015623092651 8.26281261444092 -10.4684371948242
12.3021879196167 8.32156276702881 -10.4518747329712
12.3024997711182 8.3774995803833 -10.4353122711182
12.3046875 8.43531227111816 -10.4196872711182
12.3062496185303 8.49312496185303 -10.407187461853
12.3065624237061 8.55281257629395 -10.375937461853
12.3053121566772 8.6118745803833 -10.3512496948242
12.3053121566772 8.67000007629395 -10.3334379196167
12.3062496185303 8.72812461853027 -10.3034372329712
12.3078126907349 8.78750038146973 -10.2721872329712
12.3103122711182 8.84531211853027 -10.2437496185303
12.3112497329712 8.90312480926514 -10.2203121185303
12.3109378814697 8.96249961853027 -10.1915626525879
12.3125 9.02218723297119 -10.1549997329712
12.3146877288818 9.08187484741211 -10.1137504577637
12.3162498474121 9.140625 -10.0765628814697
12.3175001144409 9.19999980926514 -10.0428123474121
12.3187503814697 9.25968742370605 -10
12.3231248855591 9.3178129196167 -9.95593738555908
12.3293752670288 9.3774995803833 -9.91031265258789
12.3325004577637 9.43781280517578 -9.85843753814697
12.3343753814697 9.49874973297119 -9.80687522888184
12.3359375 9.55781269073486 -9.77062511444092
12.3371877670288 9.61750030517578 -9.74312496185303
12.3396873474121 9.67749977111816 -9.70874977111816
12.34375 9.73718738555908 -9.66218757629395
12.3456249237061 9.79531288146973 -9.61999988555908
12.3462495803833 9.85499954223633 -9.57937526702881
12.3493747711182 9.91499996185303 -9.53281211853027
12.3528127670288 9.97500038146973 -9.48999977111816
12.3571872711182 10.0349998474121 -9.44062519073486
12.3612499237061 10.0956249237061 -9.38718795776367
12.3631248474121 10.157187461853 -9.32937526702881
12.3671875 10.217812538147 -9.27375030517578
12.3696870803833 10.2790622711182 -9.19812488555908
12.3709373474121 10.3403129577637 -9.13093757629395
12.3743753433228 10.4021873474121 -9.06968784332275
12.3803129196167 10.4650001525879 -9.00468730926514
12.3865623474121 10.5265626907349 -8.93343734741211
12.3900003433228 10.5881252288818 -8.86062526702881
12.3934373855591 10.6506252288818 -8.78125
12.3996877670288 10.7150001525879 -8.67500019073486
12.40625 10.7796878814697 -8.56875038146973
21.8050003051758 1.31187498569489 -6.48656272888184
21.8050003051758 1.25250005722046 -6.50500011444092
21.8053131103516 1.19281244277954 -6.5234375
21.8043746948242 1.13499999046326 -6.54437494277954
12.5853128433228 -0.654375016689301 -5.85437488555908
12.585000038147 -0.595312476158142 -5.88531255722046
12.585000038147 -0.537500023841858 -5.90999984741211
12.5853128433228 -0.479999989271164 -5.93437480926514
12.5878124237061 -0.422500014305115 -5.95187520980835
12.5896873474121 -0.364687502384186 -5.96124982833862
12.5903129577637 -0.305312514305115 -5.97468757629395
12.5884370803833 -0.247500002384186 -5.98218727111816
12.5874996185303 -0.189687505364418 -5.99093770980835
12.5856246948242 -0.130312502384186 -6.00562477111816
12.5853128433228 -0.073124997317791 -6.01999998092651
12.5881252288818 -0.0168750006705523 -6.04156255722046
12.5893745422363 0.0421875007450581 -6.05968761444092
12.5912504196167 0.100312501192093 -6.0709376335144
12.5915622711182 0.159687504172325 -6.08093738555908
12.5906248092651 0.217812493443489 -6.09687519073486
12.5884370803833 0.277187496423721 -6.109375
12.5903129577637 0.33500000834465 -6.11281251907349
12.5893745422363 0.392500013113022 -6.1256251335144
12.586874961853 0.450312495231628 -6.140625
12.5843753814697 0.509374976158142 -6.15875005722046
12.5821876525879 0.567499995231628 -6.1881251335144
12.5828123092651 0.625 -6.20781230926514
12.579062461853 0.682187497615814 -6.23562479019165
12.5765628814697 0.740000009536743 -6.25468730926514
12.5762500762939 0.797812521457672 -6.27531242370605
12.5756254196167 0.856562495231628 -6.30812501907349
12.577187538147 0.912812471389771 -6.34656238555908
12.5837497711182 0.970000028610229 -6.38875007629395
12.5853128433228 1.0275000333786 -6.40625
12.5828123092651 1.08500003814697 -6.42624998092651
12.5812501907349 1.14281249046326 -6.44250011444092
12.5806245803833 1.20218753814697 -6.46000003814697
12.5778121948242 1.25999999046326 -6.47687482833862
12.5725002288818 1.31749999523163 -6.49187517166138
12.5675001144409 1.37531244754791 -6.51218748092651
12.5649995803833 1.43468749523163 -6.53249979019165
21.8037490844727 1.07749998569489 -6.55562496185303
21.8031253814697 1.01999998092651 -6.56687498092651
21.7993755340576 0.961875021457672 -6.58781242370605
21.7937507629395 0.902499973773956 -6.60906267166138
12.4478120803833 3.45562505722046 -9.00687503814697
12.4446878433228 3.51187491416931 -9.06437492370605
12.4421873092651 3.56781244277954 -9.12625026702881
12.4393749237061 3.62312507629395 -9.19156265258789
12.4368753433228 3.6793749332428 -9.2578125
12.4340629577637 3.73499989509583 -9.32718753814697
12.4303121566772 3.79031252861023 -9.39281272888184
12.428750038147 3.84468746185303 -9.46374988555908
12.4243745803833 3.90000009536743 -9.53625011444092
12.4190626144409 3.95499992370605 -9.60312461853027
12.4165620803833 4.01062488555908 -9.671875
12.4137496948242 4.06687498092651 -9.74374961853027
12.4099998474121 4.12218761444092 -9.82625007629395
12.4075002670288 4.17687511444092 -9.90562534332275
12.4040622711182 4.23031234741211 -9.98593711853027
12.4003124237061 4.28312492370605 -10.0715627670288
12.3978128433228 4.33781242370605 -10.1565628051758
12.3921871185303 4.39249992370605 -10.2384376525879
12.3874998092651 4.44781255722046 -10.3087501525879
12.3828125 4.50250005722046 -10.3718748092651
12.3784370422363 4.55812501907349 -10.4315624237061
12.3774995803833 4.61437511444092 -10.4809379577637
12.375937461853 4.66968727111816 -10.5328121185303
12.3746871948242 4.72312498092651 -10.5706253051758
12.3728122711182 4.77968740463257 -10.6031246185303
12.3721876144409 4.8353123664856 -10.633749961853
12.3699998855591 4.89218759536743 -10.6640625
12.3687496185303 4.94781255722046 -10.6993751525879
12.3671875 5.00437498092651 -10.725625038147
12.3646879196167 5.05999994277954 -10.7503128051758
12.3615627288818 5.11531257629395 -10.7734375
12.3628120422363 5.1725001335144 -10.7828121185303
12.3643751144409 5.22968769073486 -10.7915620803833
12.3628120422363 5.28531265258789 -10.803750038147
12.3606252670288 5.34187507629395 -10.8190622329712
12.3621873855591 5.39812517166138 -10.8337497711182
12.3628120422363 5.45499992370605 -10.829062461853
12.3621873855591 5.51218748092651 -10.8303127288818
12.3606252670288 5.56812477111816 -10.842812538147
12.3606252670288 5.62312507629395 -10.850625038147
12.360312461853 5.6803126335144 -10.8615627288818
12.3618745803833 5.73781251907349 -10.860312461853
12.3625001907349 5.79531240463257 -10.8578128814697
12.3621873855591 5.85249996185303 -10.8587503433228
12.3628120422363 5.90999984741211 -10.858437538147
12.3618745803833 5.96687507629395 -10.8643751144409
12.3590621948242 6.02124977111816 -10.8778123855591
12.3587503433228 6.07843732833862 -10.881875038147
12.3643751144409 6.13687515258789 -10.8618745803833
12.3640623092651 6.19281244277954 -10.8590621948242
12.3656253814697 6.25 -10.8490629196167
12.366250038147 6.30749988555908 -10.8424997329712
12.3659372329712 6.36499977111816 -10.8343753814697
12.3659372329712 6.4225001335144 -10.8240623474121
12.3671875 6.47968769073486 -10.8143749237061
12.368124961853 6.53531265258789 -10.8081245422363
12.3696870803833 6.59250020980835 -10.8024997711182
12.3693752288818 6.65000009536743 -10.7950000762939
12.3699998855591 6.70749998092651 -10.7931251525879
12.3715629577637 6.76531267166138 -10.7884378433228
12.3706245422363 6.82250022888184 -10.7693748474121
12.3706245422363 6.88000011444092 -10.7681245803833
12.3703126907349 6.93781232833862 -10.765625
12.3709373474121 6.99499988555908 -10.7496871948242
12.3709373474121 7.05249977111816 -10.7318754196167
12.3703126907349 7.1100001335144 -10.7162504196167
12.3687496185303 7.16781234741211 -10.7090625762939
12.3684377670288 7.22687482833862 -10.6946878433228
12.3687496185303 7.28312492370605 -10.6831245422363
12.3699998855591 7.34031248092651 -10.6753120422363
12.3721876144409 7.39812517166138 -10.6659374237061
12.3737497329712 7.45499992370605 -10.6515626907349
12.3728122711182 7.51249980926514 -10.6456251144409
12.3725004196167 7.57000017166138 -10.639687538147
12.374062538147 7.62750005722046 -10.6328125
12.3743753433228 7.68499994277954 -10.6374998092651
12.3746871948242 7.74249982833862 -10.6346874237061
12.375 7.80000019073486 -10.6203126907349
12.3746871948242 7.85750007629395 -10.6000003814697
12.375 7.9146876335144 -10.5799999237061
12.3762502670288 7.97249984741211 -10.5675001144409
12.3778123855591 8.02968788146973 -10.5571870803833
12.3765621185303 8.08781242370605 -10.5378122329712
12.3756246566772 8.14562511444092 -10.5206251144409
12.3781251907349 8.20437526702881 -10.4915628433228
12.3803129196167 8.26249980926514 -10.4806251525879
12.381875038147 8.31999969482422 -10.4690628051758
12.3824996948242 8.37593746185303 -10.4565620422363
12.3843746185303 8.43468761444092 -10.4440622329712
12.3850002288818 8.49281215667725 -10.4303121566772
12.3850002288818 8.55187511444092 -10.3987503051758
12.3850002288818 8.60999965667725 -10.3721876144409
12.3856248855591 8.66812515258789 -10.3512496948242
12.3884372711182 8.72718715667725 -10.3231248855591
12.3903121948242 8.78687477111816 -10.2918748855591
12.3937501907349 8.84468746185303 -10.2628126144409
12.3950004577637 8.90218734741211 -10.2415628433228
12.3928127288818 8.96062469482422 -10.2184371948242
12.3943748474121 9.02031230926514 -10.1843748092651
12.3953123092651 9.07999992370605 -10.1462497711182
12.3959379196167 9.13937473297119 -10.1075000762939
12.3978128433228 9.19812488555908 -10.0725002288818
12.3996877670288 9.25749969482422 -10.0287504196167
12.4031248092651 9.31562519073486 -9.9868745803833
12.4090623855591 9.375 -9.94156265258789
12.4118747711182 9.4350004196167 -9.89750003814697
12.4128122329712 9.49562454223633 -9.85093784332275
12.4140625 9.55531215667725 -9.81031227111816
12.4171876907349 9.61531257629395 -9.7759370803833
12.4203128814697 9.67531204223633 -9.73999977111816
12.4243745803833 9.73468780517578 -9.69406223297119
12.4265623092651 9.79281234741211 -9.65124988555908
12.4271879196167 9.85249996185303 -9.61312484741211
12.4300003051758 9.91250038146973 -9.57093715667725
12.4321870803833 9.97281265258789 -9.52562522888184
12.436562538147 10.0325002670288 -9.48250007629395
12.4399995803833 10.092812538147 -9.43624973297119
12.4428129196167 10.1546878814697 -9.37874984741211
12.4456253051758 10.2150001525879 -9.31093788146973
12.4493751525879 10.2756252288818 -9.24093723297119
12.452187538147 10.3371877670288 -9.1796875
12.4562501907349 10.3984375 -9.12218761444092
12.4603128433228 10.4615621566772 -9.05437469482422
12.4650001525879 10.5231246948242 -8.98124980926514
12.4681253433228 10.585000038147 -8.91187477111816
12.4724998474121 10.647500038147 -8.83656215667725
12.477499961853 10.7106246948242 -8.74593734741211
12.483437538147 10.7749996185303 -8.640625
12.4896879196167 10.8400001525879 -8.52812480926514
21.7924995422363 0.844375014305115 -6.62718772888184
21.7937507629395 0.785312473773956 -6.63812494277954
21.7912502288818 0.727187514305115 -6.6556248664856
21.7893753051758 0.667812526226044 -6.67718744277954
12.6693754196167 -0.712499976158142 -5.86593770980835
12.6678123474121 -0.654687523841858 -5.89531230926514
12.6678123474121 -0.595312476158142 -5.92281246185303
12.6687498092651 -0.537500023841858 -5.94374990463257
12.6681251525879 -0.479999989271164 -5.95406246185303
12.6693754196167 -0.422500014305115 -5.96250009536743
12.6706247329712 -0.364687502384186 -5.9693751335144
12.6715621948242 -0.305312514305115 -5.98093748092651
12.6703128814697 -0.247500002384186 -5.9928126335144
12.6700000762939 -0.189687505364418 -6.01125001907349
12.6696872711182 -0.130312502384186 -6.02187490463257
12.6690626144409 -0.0728124976158142 -6.02718734741211
12.6693754196167 -0.0165624991059303 -6.04343748092651
12.6678123474121 0.0421875007450581 -6.0540623664856
12.6693754196167 0.100312501192093 -6.0618748664856
12.6687498092651 0.159687504172325 -6.06874990463257
12.6662502288818 0.217812493443489 -6.07281255722046
12.6653127670288 0.277187496423721 -6.0853123664856
12.6671876907349 0.33500000834465 -6.09187507629395
12.6662502288818 0.392500013113022 -6.09843730926514
12.6646871566772 0.450312495231628 -6.11250019073486
12.663125038147 0.509687483310699 -6.13468742370605
12.6596870422363 0.567499995231628 -6.1568751335144
12.6590623855591 0.625 -6.16375017166138
12.6556253433228 0.682500004768372 -6.18656253814697
12.6528129577637 0.740000009536743 -6.21687507629395
12.6521873474121 0.797812521457672 -6.25156259536743
12.6509370803833 0.856875002384186 -6.28937482833862
12.6515626907349 0.913124978542328 -6.3365626335144
12.6587495803833 0.970000028610229 -6.38625001907349
12.6615629196167 1.02781248092651 -6.40625
12.6590623855591 1.08531248569489 -6.42031240463257
12.6575002670288 1.14281249046326 -6.42937517166138
12.657187461853 1.20218753814697 -6.44968748092651
12.6556253433228 1.25999999046326 -6.46750020980835
12.6537504196167 1.31749999523163 -6.47687482833862
21.7875003814697 0.610000014305115 -6.6953125
21.7853126525879 0.552500009536743 -6.70937490463257
21.7849998474121 0.494687497615814 -6.71531248092651
21.7828121185303 0.435312509536743 -6.72875022888184
12.5334377288818 3.45749998092651 -8.94250011444092
12.5290622711182 3.51312494277954 -9.00593757629395
12.5259370803833 3.56937503814697 -9.07218742370605
12.5231246948242 3.625 -9.13687515258789
12.5203123092651 3.68062496185303 -9.19874954223633
12.5174999237061 3.73687505722046 -9.26624965667725
12.5137500762939 3.79218745231628 -9.33531284332275
12.5124998092651 3.84593749046326 -9.40312480926514
12.5096874237061 3.90187501907349 -9.46968746185303
12.5043754577637 3.95718741416931 -9.54281234741211
12.5003128051758 4.01249980926514 -9.61406230926514
12.4965629577637 4.06781244277954 -9.68937492370605
12.4934377670288 4.12281227111816 -9.77531242370605
12.4915628433228 4.17781257629395 -9.85875034332275
12.4875001907349 4.23218727111816 -9.94656276702881
12.4825000762939 4.28499984741211 -10.0290622711182
12.4793748855591 4.33937501907349 -10.1153125762939
12.4737501144409 4.39343738555908 -10.2090625762939
12.469687461853 4.44906234741211 -10.2843751907349
12.4653129577637 4.50343751907349 -10.3462495803833
12.4612503051758 4.55937480926514 -10.4059371948242
12.4606246948242 4.61499977111816 -10.4584379196167
12.4590625762939 4.66968727111816 -10.516562461853
12.4568748474121 4.72343730926514 -10.5581245422363
12.4546871185303 4.77968740463257 -10.594687461853
12.4525003433228 4.83562517166138 -10.6343746185303
12.4499998092651 4.89218759536743 -10.6653127670288
12.4481248855591 4.94781255722046 -10.6937503814697
12.4468746185303 5.00468730926514 -10.717812538147
12.4449996948242 5.05999994277954 -10.7434377670288
12.4431247711182 5.11531257629395 -10.7674999237061
12.4453125 5.1725001335144 -10.7768745422363
12.4484376907349 5.22968769073486 -10.7868747711182
12.446249961853 5.28499984741211 -10.8043746948242
12.4418754577637 5.34062480926514 -10.8228120803833
12.4425001144409 5.39750003814697 -10.8303127288818
12.4425001144409 5.45499992370605 -10.8262500762939
12.4428129196167 5.51249980926514 -10.8262500762939
12.4434375762939 5.56937503814697 -10.8293752670288
12.4446878433228 5.625 -10.8284378051758
12.4431247711182 5.68187522888184 -10.8415622711182
12.4428129196167 5.73937511444092 -10.84375
12.4421873092651 5.79656267166138 -10.8484373092651
12.4406251907349 5.85249996185303 -10.8571872711182
12.4418754577637 5.90999984741211 -10.8609371185303
12.4431247711182 5.96718740463257 -10.8615627288818
12.4431247711182 6.02250003814697 -10.8618745803833
12.4453125 6.07968759536743 -10.8559379577637
12.4484376907349 6.13718748092651 -10.8434371948242
12.4453125 6.19281244277954 -10.844687461853
12.444375038147 6.25 -10.8381252288818
12.4449996948242 6.30749988555908 -10.8334379196167
12.4468746185303 6.36499977111816 -10.8228120803833
12.4475002288818 6.4225001335144 -10.8153123855591
12.4475002288818 6.47968769073486 -10.8071870803833
12.4475002288818 6.53531265258789 -10.803750038147
12.4490623474121 6.59250020980835 -10.8018751144409
12.4484376907349 6.65000009536743 -10.7974996566772
12.4499998092651 6.70781230926514 -10.7928123474121
12.4537496566772 6.76656246185303 -10.7834377288818
12.4543752670288 6.82281255722046 -10.7640628814697
12.4534378051758 6.88062477111816 -10.756875038147
12.4525003433228 6.93906259536743 -10.7503128051758
12.4537496566772 6.99562501907349 -10.734375
12.4537496566772 7.05249977111816 -10.7200002670288
12.4525003433228 7.1100001335144 -10.711874961853
12.4518747329712 7.16812515258789 -10.7043752670288
12.452187538147 7.2271876335144 -10.6853122711182
12.452187538147 7.28437519073486 -10.6693754196167
12.4525003433228 7.34187507629395 -10.6646871566772
12.453125 7.39937496185303 -10.65625
12.4534378051758 7.45531272888184 -10.6468753814697
12.453125 7.51249980926514 -10.6450004577637
12.453125 7.57000017166138 -10.6421871185303
12.4546871185303 7.62750005722046 -10.6350002288818
12.4546871185303 7.68499994277954 -10.6343746185303
12.4546871185303 7.74249982833862 -10.633749961853
12.4546871185303 7.80000019073486 -10.6268749237061
12.454062461853 7.85687494277954 -10.616250038147
12.4562501907349 7.9134373664856 -10.6000003814697
12.4590625762939 7.97156238555908 -10.5878124237061
12.4612503051758 8.02843761444092 -10.5762500762939
12.4590625762939 8.08687496185303 -10.5515623092651
12.4565620422363 8.14500045776367 -10.5299997329712
12.4584379196167 8.203125 -10.5078125
12.4596872329712 8.26187515258789 -10.499062538147
12.460000038147 8.31937503814697 -10.4871873855591
12.4603128433228 8.37562465667725 -10.4718751907349
12.4621877670288 8.43437480926514 -10.4562501907349
12.4628124237061 8.4921875 -10.4478120803833
12.4631252288818 8.55000019073486 -10.4315624237061
12.4643745422363 8.60812473297119 -10.4084377288818
12.4650001525879 8.66687488555908 -10.3846874237061
12.4681253433228 8.72562503814697 -10.3637504577637
12.4700002670288 8.78468704223633 -10.3284378051758
12.4724998474121 8.84249973297119 -10.2912502288818
12.4728126525879 8.90031242370605 -10.264687538147
12.4715623855591 8.95968723297119 -10.2406253814697
12.4746875762939 9.01937484741211 -10.2071876525879
12.4768753051758 9.07781219482422 -10.1756248474121
12.477499961853 9.13749980926514 -10.1387500762939
12.4793748855591 9.19718742370605 -10.1053123474121
12.4796876907349 9.25687503814697 -10.0612497329712
12.4821872711182 9.31468772888184 -10.022500038147
12.4868745803833 9.37312507629395 -9.98124980926514
12.4903125762939 9.43312454223633 -9.93937492370605
12.4925003051758 9.49437522888184 -9.88843727111816
12.4943752288818 9.55437469482422 -9.84093761444092
12.4968748092651 9.6146879196167 -9.7993745803833
12.4993753433228 9.6743745803833 -9.7603120803833
12.5024995803833 9.73281288146973 -9.72562503814697
12.5050001144409 9.79062461853027 -9.68843746185303
12.5059375762939 9.85031223297119 -9.64906215667725
12.5084371566772 9.91062545776367 -9.60499954223633
12.508749961853 9.97156238555908 -9.55624961853027
12.5128126144409 10.0306253433228 -9.51468753814697
12.5178127288818 10.0906248092651 -9.4740629196167
12.5237503051758 10.1518745422363 -9.42468738555908
12.5253124237061 10.2124996185303 -9.35624980926514
12.5271873474121 10.2728128433228 -9.29062461853027
12.530312538147 10.3343753814697 -9.23250007629395
12.5356254577637 10.3953123092651 -9.17468738555908
12.5396871566772 10.4578123092651 -9.1015625
12.5443754196167 10.5200004577637 -9.02812480926514
12.5474996566772 10.5825004577637 -8.96249961853027
12.5518751144409 10.6446876525879 -8.88937473297119
12.5559377670288 10.7071876525879 -8.8046875
12.5618753433228 10.7703123092651 -8.70625019073486
12.5678129196167 10.835000038147 -8.59656238555908
21.7821884155273 0.377499997615814 -6.73531246185303
21.7828121185303 0.319999992847443 -6.7337498664856
21.7828121185303 0.262187510728836 -6.72781229019165
12.7531251907349 -0.827812492847443 -5.85343742370605
12.750937461853 -0.769999980926514 -5.87812519073486
12.7503128051758 -0.712499976158142 -5.90406227111816
12.7496871948242 -0.654687523841858 -5.92468738555908
12.7493753433228 -0.595624983310699 -5.9459376335144
12.7496871948242 -0.537812471389771 -5.95937490463257
12.75 -0.479999989271164 -5.96343755722046
12.7506246566772 -0.422500014305115 -5.97031259536743
12.7518749237061 -0.364687502384186 -5.97781229019165
12.7524995803833 -0.305312514305115 -5.98937511444092
12.7521877288818 -0.247500002384186 -6.0006251335144
12.7521877288818 -0.189687505364418 -6.01187515258789
12.750937461853 -0.130624994635582 -6.01843738555908
12.7484378814697 -0.0728124976158142 -6.02187490463257
12.7468748092651 -0.015625 -6.03343772888184
12.7443752288818 0.0425000004470348 -6.04312515258789
12.7453126907349 0.100312501192093 -6.04906272888184
12.7443752288818 0.159687504172325 -6.05499982833862
12.7434377670288 0.217812493443489 -6.05749988555908
12.7434377670288 0.277187496423721 -6.06531238555908
12.7428121566772 0.33500000834465 -6.07625007629395
12.7396879196167 0.392500013113022 -6.08718729019165
12.7384376525879 0.450312495231628 -6.09000015258789
12.7365627288818 0.509687483310699 -6.09812498092651
12.7331247329712 0.567499995231628 -6.11749982833862
12.7340621948242 0.625 -6.13062477111816
12.7328128814697 0.682500004768372 -6.15250015258789
12.7293748855591 0.740312516689301 -6.17812490463257
12.7284374237061 0.798125028610229 -6.21218729019165
12.727499961853 0.857187509536743 -6.24531269073486
12.725625038147 0.914375007152557 -6.28718757629395
12.7268753051758 0.970937490463257 -6.33031272888184
12.7262496948242 1.02937495708466 -6.34875011444092
12.7262496948242 1.08687496185303 -6.37187480926514
12.7296876907349 1.14312505722046 -6.39406251907349
12.7318754196167 1.20218753814697 -6.41968727111816
12.7321872711182 1.25999999046326 -6.44312477111816
12.7328128814697 1.31749999523163 -6.45749998092651
21.7834377288818 0.202812492847443 -6.72218751907349
21.7853126525879 0.144999995827675 -6.71281242370605
12.6253128051758 3.45968747138977 -8.87562465667725
12.6199998855591 3.51500010490417 -8.9428129196167
12.6156253814697 3.5706250667572 -9.00968742370605
12.610312461853 3.62687492370605 -9.08031272888184
12.6059379577637 3.68249988555908 -9.14531230926514
12.6028127670288 3.73812508583069 -9.20812511444092
12.5996875762939 3.79406261444092 -9.27499961853027
12.5978126525879 3.84781241416931 -9.34343719482422
12.5950002670288 3.90281248092651 -9.40999984741211
12.5887498855591 3.95812511444092 -9.48781204223633
12.5859375 4.01468753814697 -9.56031227111816
12.5840625762939 4.07000017166138 -9.63562488555908
12.5803127288818 4.125 -9.72031211853027
12.5756254196167 4.1796875 -9.8100004196167
12.5699996948242 4.23406267166138 -9.90281295776367
12.5643749237061 4.28593730926514 -9.98812484741211
12.5609378814697 4.34031248092651 -10.0756254196167
12.5568752288818 4.39468765258789 -10.1731252670288
12.5531253814697 4.44999980926514 -10.2537498474121
12.5500001907349 4.50468730926514 -10.3206253051758
12.546875 4.55999994277954 -10.3796873092651
12.5456247329712 4.61531257629395 -10.4328126907349
12.5406246185303 4.67031240463257 -10.493124961853
12.5362501144409 4.72468757629395 -10.5406246185303
12.5346870422363 4.78031253814697 -10.5815620422363
12.5325002670288 4.83687496185303 -10.6221876144409
12.530312538147 4.89249992370605 -10.6549997329712
12.5278129577637 4.94781255722046 -10.6843748092651
12.5256252288818 5.00468730926514 -10.7140626907349
12.5249996185303 5.05999994277954 -10.7440624237061
12.5253124237061 5.11531257629395 -10.7668752670288
12.5271873474121 5.1725001335144 -10.7756252288818
12.5293750762939 5.22968769073486 -10.7865629196167
12.5275001525879 5.28499984741211 -10.805624961853
12.5246877670288 5.34062480926514 -10.8246879577637
12.524374961853 5.3978123664856 -10.8275003433228
12.5234375 5.45499992370605 -10.8240623474121
12.5259370803833 5.51249980926514 -10.8256254196167
12.5293750762939 5.5696873664856 -10.8315620422363
12.5296878814697 5.625 -10.8343753814697
12.5271873474121 5.68093729019165 -10.8474998474121
12.5249996185303 5.73812484741211 -10.8518753051758
12.5228128433228 5.79531240463257 -10.8587503433228
12.5221872329712 5.85125017166138 -10.8612499237061
12.5268745422363 5.90968751907349 -10.850625038147
12.5281248092651 5.96718740463257 -10.8468751907349
12.5265626907349 6.0228123664856 -10.852499961853
12.5262498855591 6.07999992370605 -10.8528127670288
12.5278129577637 6.13718748092651 -10.8456249237061
12.5234375 6.19281244277954 -10.8534374237061
12.5196876525879 6.25 -10.8565626144409
12.5212497711182 6.30749988555908 -10.8478126525879
12.5268745422363 6.36499977111816 -10.8215627670288
12.5287504196167 6.4225001335144 -10.8146877288818
12.5281248092651 6.47968769073486 -10.8109378814697
12.5268745422363 6.53531265258789 -10.8053121566772
12.5281248092651 6.59250020980835 -10.8018751144409
12.5281248092651 6.65031242370605 -10.7990627288818
12.5290622711182 6.70812511444092 -10.7937498092651
12.5325002670288 6.76687479019165 -10.7787504196167
12.5340623855591 6.82343769073486 -10.7581253051758
12.5318746566772 6.88187503814697 -10.7418746948242
12.5309371948242 6.94000005722046 -10.7290620803833
12.5328121185303 6.99687480926514 -10.7153129577637
12.5331249237061 7.05281257629395 -10.7109375
12.5328121185303 7.11062479019165 -10.7056245803833
12.5331249237061 7.16937494277954 -10.6953125
12.5340623855591 7.2271876335144 -10.6800003051758
12.5343751907349 7.28343772888184 -10.6712503433228
12.5346870422363 7.34093761444092 -10.6662502288818
12.5356254577637 7.39937496185303 -10.6534376144409
12.5359373092651 7.45531272888184 -10.6462497711182
12.5356254577637 7.51249980926514 -10.6450004577637
12.5343751907349 7.57000017166138 -10.6424999237061
12.5340623855591 7.62750005722046 -10.6421871185303
12.5331249237061 7.68468761444092 -10.6403121948242
12.5331249237061 7.7421875 -10.6387500762939
12.5349998474121 7.79968738555908 -10.633749961853
12.5371875762939 7.85562515258789 -10.6274995803833
12.539999961853 7.91249990463257 -10.6146879196167
12.5403127670288 7.97031259536743 -10.6068754196167
12.5415620803833 8.02750015258789 -10.5978126525879
12.5403127670288 8.08562469482422 -10.5793752670288
12.5378122329712 8.14437484741211 -10.561562538147
12.5368747711182 8.20218753814697 -10.5418748855591
12.5378122329712 8.2603120803833 -10.5278129577637
12.538125038147 8.3178129196167 -10.5096874237061
12.5384378433228 8.37468719482422 -10.4943752288818
12.5403127670288 8.43281269073486 -10.4771871566772
12.5421876907349 8.49031257629395 -10.4684371948242
12.5424995422363 8.54812526702881 -10.4543752670288
12.5424995422363 8.6068754196167 -10.4312496185303
12.5434379577637 8.66531276702881 -10.40625
12.5481252670288 8.72437477111816 -10.3853120803833
12.5500001907349 8.78281211853027 -10.3543748855591
12.5518751144409 8.84000015258789 -10.3268747329712
12.5524997711182 8.89812469482422 -10.3015623092651
12.5528125762939 8.95750045776367 -10.2731246948242
12.5553121566772 9.01718711853027 -10.2421875
12.5565624237061 9.0756254196167 -10.2143745422363
12.5571870803833 9.13500022888184 -10.1790628433228
12.5581245422363 9.19499969482422 -10.1450004577637
12.5562496185303 9.25468730926514 -10.1015625
12.5581245422363 9.31281280517578 -10.0618753433228
12.5631246566772 9.37218761444092 -10.0187501907349
12.5684375762939 9.4321870803833 -9.97468757629395
12.571249961853 9.4921875 -9.92906284332275
12.5721874237061 9.55125045776367 -9.88749980926514
12.5731248855591 9.61218738555908 -9.84343719482422
12.5753126144409 9.67249965667725 -9.79593753814697
12.5796871185303 9.7318754196167 -9.7553129196167
12.5837497711182 9.78999996185303 -9.7134370803833
12.5846872329712 9.84968757629395 -9.67406272888184
12.5856246948242 9.90937519073486 -9.63343715667725
12.5859375 9.97000026702881 -9.58656215667725
12.5903129577637 10.0296878814697 -9.54593753814697
12.5956249237061 10.0893745422363 -9.50874996185303
12.6028127670288 10.1487503051758 -9.46687507629395
12.6043748855591 10.2096872329712 -9.40499973297119
12.6040620803833 10.2700004577637 -9.33968734741211
12.6087503433228 10.3309373855591 -9.28156280517578
12.6149997711182 10.3921871185303 -9.22500038146973
12.6175003051758 10.4549999237061 -9.15124988555908
12.6215629577637 10.5171871185303 -9.0834379196167
12.6253128051758 10.5793752670288 -9.015625
12.6296873092651 10.640625 -8.94593715667725
12.6343746185303 10.7028121948242 -8.86375045776367
12.6400003433228 10.765625 -8.77000045776367
12.6446876525879 10.8303127288818 -8.66499996185303
12.6515626907349 10.8950004577637 -8.55937480926514
21.4237499237061 6.39031267166138 -10.0684375762939
21.4221878051758 6.33437490463257 -10.0581245422363
21.4221878051758 6.27718734741211 -10.0534372329712
21.4240627288818 6.21999979019165 -10.0415620803833
21.4246883392334 6.16249990463257 -10.0284376144409
21.4259376525879 6.10593748092651 -10.0028123855591
21.4274997711182 6.05187511444092 -9.97812461853027
21.4300003051758 5.99531269073486 -9.94843769073486
12.8362503051758 -0.828125 -5.89937496185303
12.8343753814697 -0.770312488079071 -5.91781234741211
12.8321876525879 -0.712812483310699 -5.93343734741211
12.8303127288818 -0.654999971389771 -5.94374990463257
12.8284378051758 -0.597187519073486 -5.95593738555908
12.829062461853 -0.539375007152557 -5.96437501907349
12.8315620422363 -0.480312496423721 -5.96843767166138
12.8321876525879 -0.422500014305115 -5.97249984741211
12.8325004577637 -0.364687502384186 -5.97968769073486
12.8325004577637 -0.305312514305115 -6
12.8325004577637 -0.247812494635582 -6.02124977111816
12.8318748474121 -0.189999997615814 -6.02874994277954
12.8287496566772 -0.132187500596046 -6.03656244277954
12.8275003433228 -0.0746875032782555 -6.04374980926514
12.8268747329712 -0.0168750006705523 -6.05656242370605
12.8256254196167 0.0421875007450581 -6.06218767166138
12.8265628814697 0.100312501192093 -6.06281232833862
12.8265628814697 0.159687504172325 -6.0709376335144
12.8268747329712 0.217812493443489 -6.07999992370605
12.8268747329712 0.277187496423721 -6.07843732833862
12.8246879577637 0.33500000834465 -6.0787501335144
12.821249961853 0.392500013113022 -6.08781242370605
12.8206253051758 0.450312495231628 -6.08437490463257
12.8199996948242 0.509687483310699 -6.08500003814697
12.8181247711182 0.567499995231628 -6.1009373664856
12.8187503814697 0.625 -6.11499977111816
12.8165626525879 0.682812511920929 -6.13187503814697
12.8128128051758 0.741874992847443 -6.14468765258789
12.8106250762939 0.799687504768372 -6.16437482833862
12.8081245422363 0.857500016689301 -6.19187498092651
12.8021879196167 0.915000021457672 -6.22499990463257
12.7987499237061 0.972187519073486 -6.25593757629395
12.795937538147 1.02999997138977 -6.28000020980835
12.7974996566772 1.08718752861023 -6.33156251907349
12.8028125762939 1.14343750476837 -6.38124990463257
12.8059377670288 1.20249998569489 -6.41093730926514
12.8084373474121 1.25999999046326 -6.43781232833862
12.811562538147 1.31749999523163 -6.45531272888184
21.4325008392334 5.93968772888184 -9.921875
21.4356250762939 5.88312482833862 -9.87968730926514
21.4400005340576 5.8274998664856 -9.83374977111816
12.7131252288818 3.51687502861023 -8.88218784332275
12.7084379196167 3.57249999046326 -8.94250011444092
12.7009372711182 3.62812495231628 -9.00812530517578
12.6946878433228 3.68468761444092 -9.07218742370605
12.6896877288818 3.74000000953674 -9.13624954223633
12.6856250762939 3.79531240463257 -9.20343780517578
12.6846876144409 3.84999990463257 -9.26968765258789
12.6828126907349 3.90499997138977 -9.33406257629395
12.6762504577637 3.96031260490417 -9.41874980926514
12.6740627288818 4.01687479019165 -9.5
12.6721878051758 4.07218742370605 -9.578125
12.6687498092651 4.12687492370605 -9.6665620803833
12.6625003814697 4.18062496185303 -9.76406288146973
12.6568746566772 4.2350001335144 -9.85750007629395
12.6518745422363 4.28781270980835 -9.94874954223633
12.6471872329712 4.34187507629395 -10.0412502288818
12.6409378051758 4.39562511444092 -10.1390628814697
12.6371879577637 4.45031261444092 -10.2231254577637
12.633749961853 4.50531244277954 -10.2931251525879
12.6290626525879 4.56062507629395 -10.3543748855591
12.6268749237061 4.61687517166138 -10.4081249237061
12.6221876144409 4.671875 -10.4637498855591
12.618124961853 4.72531270980835 -10.5159378051758
12.6159372329712 4.7806248664856 -10.5643749237061
12.6137504577637 4.83718729019165 -10.6081247329712
12.6121873855591 4.89281272888184 -10.6424999237061
12.6096878051758 4.94812488555908 -10.672812461853
12.6062498092651 5.00468730926514 -10.7075004577637
12.6059379577637 5.06031227111816 -10.7375001907349
12.6075000762939 5.11562490463257 -10.7603120803833
12.6087503433228 5.1725001335144 -10.772500038147
12.6096878051758 5.22968769073486 -10.7846870422363
12.6078128814697 5.28531265258789 -10.7993745803833
12.6056251525879 5.34218740463257 -10.8137502670288
12.6056251525879 5.39937496185303 -10.8159370422363
12.6059379577637 5.45531272888184 -10.8087501525879
12.6112499237061 5.51249980926514 -10.8003120422363
12.6125001907349 5.5696873664856 -10.8087501525879
12.6062498092651 5.625 -10.8343753814697
12.6068754196167 5.68218755722046 -10.8403129577637
12.6081247329712 5.73968744277954 -10.8374996185303
12.6065626144409 5.796875 -10.8418750762939
12.6046876907349 5.85249996185303 -10.8468751907349
12.6059379577637 5.90999984741211 -10.8400001525879
12.6056251525879 5.96718740463257 -10.8387498855591
12.6053123474121 6.0228123664856 -10.8403129577637
12.6053123474121 6.07999992370605 -10.8393745422363
12.6059379577637 6.13718748092651 -10.8365621566772
12.6043748855591 6.19281244277954 -10.8400001525879
12.6015625 6.25031232833862 -10.8443746566772
12.6021871566772 6.30781269073486 -10.8378124237061
12.6071872711182 6.36499977111816 -10.8103122711182
12.6090621948242 6.4225001335144 -10.8065624237061
12.6115627288818 6.47968769073486 -10.8021879196167
12.6121873855591 6.53562498092651 -10.7946872711182
12.6128120422363 6.5931248664856 -10.7912502288818
12.6125001907349 6.65187501907349 -10.7868747711182
