# .PCD v0.7 - Point Cloud Data file format
VERSION 0.7
FIELDS x y z
SIZE 4 4 4
TYPE F F F
COUNT 1 1 1
WIDTH 927
HEIGHT 1
VIEWPOINT 0 0 0 1 0 0 0
POINTS 927
DATA ascii
16.8743743896484 0.721875011920929 -11.204062461853
16.875 0.779375016689301 -11.1949996948242
16.8768749237061 0.834999978542328 -11.1853122711182
16.8790626525879 0.892187476158142 -11.1790628433228
16.8790626525879 0.949687480926514 -11.1724996566772
16.8809375762939 1.00687503814697 -11.1590623855591
16.8799991607666 1.0625 -11.1521873474121
16.8796882629395 1.11968755722046 -11.1499996185303
16.8799991607666 1.17718744277954 -11.1478128433228
16.8815631866455 1.23468744754791 -11.1371879577637
16.8815631866455 1.29062497615814 -11.1312503814697
16.8821868896484 1.3478125333786 -11.1284370422363
16.8818740844727 1.40499997138977 -11.1271877288818
16.8821868896484 1.46062505245209 -11.1231250762939
16.8840618133545 1.51781249046326 -11.1128120422363
16.8846874237061 1.57531249523163 -11.1059379577637
16.8846874237061 1.63218748569489 -11.0881252288818
16.8850002288818 1.68968749046326 -11.0753126144409
16.8871879577637 1.74718749523163 -11.0571870803833
16.8893756866455 1.80312502384186 -11.0331249237061
16.8896865844727 1.86062502861023 -11.0100002288818
16.8912506103516 1.91906249523163 -10.9884376525879
16.890625 1.97531247138977 -10.9712495803833
16.8921871185303 2.03250002861023 -10.9509372711182
16.8934383392334 2.08999991416931 -10.9315624237061
16.8965625762939 2.14781260490417 -10.9112501144409
16.8978118896484 2.20468759536743 -10.8931245803833
16.8996868133545 2.26250004768372 -10.8731250762939
16.9015617370605 2.3199999332428 -10.8493747711182
16.9021873474121 2.37687492370605 -10.8353128433228
16.9040622711182 2.43343758583069 -10.8171873092651
16.9050006866455 2.4918749332428 -10.7940626144409
16.9068756103516 2.54999995231628 -10.765625
16.9078121185303 2.60750007629395 -10.7449998855591
16.9096870422363 2.66499996185303 -10.7171878814697
16.9099998474121 2.72250008583069 -10.6790628433228
16.9121875762939 2.78031253814697 -10.6525001525879
16.9143753051758 2.83937501907349 -10.6206245422363
16.9162502288818 2.89531254768372 -10.5915622711182
16.9174995422363 2.95250010490417 -10.5621871948242
16.921875 3.01031255722046 -10.5371875762939
16.9231243133545 3.06937503814697 -10.5096874237061
16.9231243133545 3.12593746185303 -10.4828128814697
16.9262504577637 3.18468761444092 -10.4468746185303
16.9265632629395 3.2425000667572 -10.4128122329712
16.9290618896484 3.29999995231628 -10.3815622329712
16.9315624237061 3.35750007629395 -10.3418750762939
16.9312496185303 3.41499996185303 -10.3121871948242
16.9349994659424 3.47281241416931 -10.2693748474121
16.9390621185303 3.53218746185303 -10.2215623855591
16.9403133392334 3.59062504768372 -10.180624961853
16.9431247711182 3.64937496185303 -10.1446876525879
16.9456253051758 3.70781254768372 -10.109375
16.9500007629395 3.76656246185303 -10.0687503814697
16.953125 3.82312488555908 -10.024374961853
16.9556255340576 3.88187503814697 -9.98250007629395
16.9562492370605 3.94031238555908 -9.94062519073486
16.9603118896484 3.99937510490417 -9.89249992370605
16.9668750762939 4.05812501907349 -9.84000015258789
16.9715633392334 4.11749982833862 -9.78750038146973
16.9753131866455 4.17687511444092 -9.73593711853027
16.9778118133545 4.23531246185303 -9.67937469482422
16.9818744659424 4.29312515258789 -9.6225004196167
16.9859371185303 4.35249996185303 -9.56718730926514
16.9909381866455 4.41187477111816 -9.51531219482422
16.9968757629395 4.47062492370605 -9.46156215667725
17.0025005340576 4.53031253814697 -9.40437507629395
17.0090618133545 4.59000015258789 -9.34187507629395
17.0128116607666 4.65000009536743 -9.27750015258789
17.0159378051758 4.70968770980835 -9.20718765258789
17.0221881866455 4.76781272888184 -9.13781261444092
17.0290622711182 4.8274998664856 -9.06843757629395
17.0331249237061 4.88781261444092 -9.0024995803833
17.0378131866455 4.94781255722046 -8.93812465667725
26.7275009155273 1.16750001907349 -11.280312538147
26.7296867370605 1.11000001430511 -11.2618751525879
26.7315616607666 1.05281245708466 -11.2475004196167
16.9456253051758 -2.85750007629395 -11.3453121185303
16.9440631866455 -2.80031251907349 -11.3753128051758
16.9415626525879 -2.74468755722046 -11.399374961853
16.9400005340576 -2.6875 -11.4168748855591
16.9384384155273 -2.63031244277954 -11.4406251907349
16.9378128051758 -2.57468748092651 -11.4515628814697
16.9390621185303 -2.51749992370605 -11.4671878814697
16.9384384155273 -2.46000003814697 -11.4828128814697
16.9365615844727 -2.40281248092651 -11.4981250762939
16.9365615844727 -2.34718751907349 -11.5249996185303
16.9343757629395 -2.28999996185303 -11.5375003814697
16.9325008392334 -2.23281240463257 -11.5440626144409
16.9321880340576 -2.17718744277954 -11.5584373474121
16.9321880340576 -2.11999988555908 -11.5675001144409
16.9321880340576 -2.0628125667572 -11.578125
16.9306259155273 -2.00718760490417 -11.5950002670288
16.9300003051758 -1.95000004768372 -11.6040620803833
16.9293746948242 -1.89281249046326 -11.609375
16.9274997711182 -1.83718752861023 -11.6137504577637
16.9259376525879 -1.77999997138977 -11.6131248474121
16.9262504577637 -1.72312498092651 -11.6225004196167
16.9287490844727 -1.66718745231628 -11.6381254196167
16.9293746948242 -1.61000001430511 -11.6465625762939
16.9293746948242 -1.55281245708466 -11.6468753814697
16.9290618896484 -1.49562501907349 -11.6431245803833
16.9278125762939 -1.44000005722046 -11.6381254196167
16.9278125762939 -1.3828125 -11.6412496566772
16.9293746948242 -1.32562494277954 -11.6481246948242
16.9300003051758 -1.26999998092651 -11.649374961853
16.9296875 -1.21312499046326 -11.647500038147
16.9281253814697 -1.15718746185303 -11.6359376907349
16.9278125762939 -1.10000002384186 -11.6340627670288
16.9287490844727 -1.0428124666214 -11.6296873092651
16.9334373474121 -0.987187504768372 -11.6137504577637
16.9346866607666 -0.930000007152557 -11.6049995422363
16.9331245422363 -0.872500002384186 -11.6034374237061
16.9328117370605 -0.815312504768372 -11.5987501144409
16.9337501525879 -0.759687483310699 -11.5915622711182
16.9371871948242 -0.702499985694885 -11.5803127288818
16.9390621185303 -0.644999980926514 -11.569375038147
16.9381256103516 -0.587812483310699 -11.5696878433228
16.9384384155273 -0.532187521457672 -11.5684375762939
16.9378128051758 -0.474999994039536 -11.5518751144409
16.9371871948242 -0.417812496423721 -11.5325002670288
16.9356250762939 -0.362187504768372 -11.515625
16.9349994659424 -0.305000007152557 -11.4962501525879
16.9381256103516 -0.247812494635582 -11.4684371948242
16.9393749237061 -0.191874995827675 -11.4512500762939
16.9396877288818 -0.134375005960464 -11.4371871948242
16.9409370422363 -0.0759375020861626 -11.4243745803833
16.9440631866455 -0.0199999995529652 -11.399374961853
16.9462509155273 0.0371875017881393 -11.3856248855591
16.9471874237061 0.0943749994039536 -11.374062538147
16.9471874237061 0.150312498211861 -11.3587503433228
16.9487495422363 0.207499995827675 -11.3459377288818
16.9471874237061 0.264999985694885 -11.3331251144409
16.9471874237061 0.322187513113022 -11.3184375762939
16.9475002288818 0.377812504768372 -11.3074998855591
16.9475002288818 0.435000002384186 -11.3062496185303
16.9478130340576 0.4921875 -11.3040628433228
16.9478130340576 0.547812521457672 -11.2993745803833
16.9478130340576 0.605000019073486 -11.2918748855591
16.9481258392334 0.662500023841858 -11.2862501144409
16.9503116607666 0.720312476158142 -11.2778129577637
16.9524993896484 0.777499973773956 -11.2749996185303
16.9546871185303 0.833124995231628 -11.2690620422363
16.9562492370605 0.890312492847443 -11.2637500762939
16.9559383392334 0.947812497615814 -11.2600002288818
16.9568748474121 1.00499999523163 -11.2531251907349
16.9568748474121 1.06062495708466 -11.2465629577637
16.9556255340576 1.11781251430511 -11.243124961853
16.9553127288818 1.17531251907349 -11.2396879196167
16.9549999237061 1.23281252384186 -11.227499961853
16.9540634155273 1.28968751430511 -11.2159376144409
16.9553127288818 1.34718751907349 -11.2078123092651
16.9571876525879 1.40437495708466 -11.2046871185303
16.9578132629395 1.46000003814697 -11.202187538147
16.9584369659424 1.51718747615814 -11.1940622329712
16.9593753814697 1.5743750333786 -11.1850004196167
16.9599990844727 1.63031244277954 -11.1634378433228
16.9606246948242 1.68781244754791 -11.149374961853
16.9621868133545 1.74531245231628 -11.1328125
16.9634380340576 1.80218744277954 -11.1137504577637
16.9631252288818 1.85968744754791 -11.0971870422363
16.9650001525879 1.91718745231628 -11.0793752670288
16.9656257629395 1.9728125333786 -11.0659370422363
16.9671878814697 2.02999997138977 -11.0521879196167
16.9675006866455 2.08812499046326 -11.0275001525879
16.9703121185303 2.14656257629395 -11.0018749237061
16.9724998474121 2.2028124332428 -10.9815626144409
16.9743747711182 2.25999999046326 -10.9624996185303
16.9737491607666 2.31750011444092 -10.9362497329712
16.9740619659424 2.375 -10.9193754196167
16.9775009155273 2.43218755722046 -10.8987503051758
16.9799995422363 2.49000000953674 -10.8800001144409
16.9821872711182 2.54749989509583 -10.8562498092651
16.9825000762939 2.60500001907349 -10.835000038147
16.9846878051758 2.66249990463257 -10.8106250762939
16.9853134155273 2.71968746185303 -10.7787504196167
16.9856243133545 2.77781248092651 -10.7487497329712
16.9878120422363 2.83656239509583 -10.7200002670288
16.9896869659424 2.89249992370605 -10.694375038147
16.9909381866455 2.95000004768372 -10.6643753051758
16.9962501525879 3.0078125 -10.6390628814697
16.9987506866455 3.06687498092651 -10.6056251525879
16.9968757629395 3.1246874332428 -10.5737495422363
17 3.18249988555908 -10.532187461853
17.0015621185303 3.24000000953674 -10.5
17.0031242370605 3.29749989509583 -10.4724998474121
17.0065631866455 3.35500001907349 -10.4359378814697
17.0074996948242 3.41249990463257 -10.4025001525879
17.0100002288818 3.47031259536743 -10.3621873855591
17.0128116607666 3.52968740463257 -10.3206253051758
17.015625 3.58750009536743 -10.2840623855591
17.0206241607666 3.64562511444092 -10.25
17.0228118896484 3.70468759536743 -10.2193746566772
17.0265617370605 3.76281261444092 -10.1771879196167
17.0284366607666 3.8199999332428 -10.1312503814697
17.0290622711182 3.87812495231628 -10.0884370803833
17.0315628051758 3.9371874332428 -10.0440626144409
17.0349998474121 3.99562501907349 -9.99687480926514
17.0396881103516 4.05499982833862 -9.94562530517578
17.0440616607666 4.11437511444092 -9.89718723297119
17.0503120422363 4.17312479019165 -9.84843730926514
17.0524997711182 4.23187494277954 -9.79468727111816
17.0553131103516 4.2896876335144 -9.7421875
17.0596866607666 4.34812498092651 -9.69124984741211
17.0646877288818 4.40749979019165 -9.640625
17.0696868896484 4.46718740463257 -9.58468723297119
17.0734367370605 4.52687501907349 -9.52499961853027
17.0796871185303 4.58562517166138 -9.46843719482422
17.0849990844727 4.64499998092651 -9.41562461853027
17.0881252288818 4.70468759536743 -9.34468746185303
17.0934371948242 4.76312494277954 -9.27187538146973
17.1015625 4.82281255722046 -9.20374965667725
17.1068744659424 4.88250017166138 -9.13968753814697
17.1115627288818 4.94250011444092 -9.0756254196167
17.1159381866455 5.00250005722046 -9.01500034332275
26.7346878051758 0.997187495231628 -11.2221870422363
26.7371883392334 0.940625011920929 -11.1968746185303
26.7387504577637 0.884687483310699 -11.1659374237061
26.7425003051758 0.827812492847443 -11.1412496566772
26.7446880340576 0.772187471389771 -11.1149997711182
26.7459373474121 0.714999973773956 -11.0862503051758
26.7490615844727 0.657500028610229 -11.0609378814697
17.0271873474121 -2.85750007629395 -11.3500003814697
17.0253124237061 -2.80031251907349 -11.3856248855591
17.0221881866455 -2.74468755722046 -11.4159374237061
17.0203132629395 -2.6875 -11.4362497329712
17.0193748474121 -2.63031244277954 -11.4543752670288
17.0165634155273 -2.57468748092651 -11.4656248092651
17.015625 -2.51749992370605 -11.4812498092651
17.0159378051758 -2.46000003814697 -11.4978122711182
17.0162506103516 -2.40281248092651 -11.5190620422363
17.0153121948242 -2.34718751907349 -11.5531253814697
17.0125007629395 -2.28999996185303 -11.578125
17.0106258392334 -2.23281240463257 -11.5915622711182
17.0096874237061 -2.17718744277954 -11.6031246185303
17.0087509155273 -2.11999988555908 -11.6121873855591
17.0100002288818 -2.0628125667572 -11.6278123855591
17.0100002288818 -2.00718760490417 -11.6400003433228
17.0093746185303 -1.95000004768372 -11.6465625762939
17.0078125 -1.89281249046326 -11.6534376144409
17.0074996948242 -1.83718752861023 -11.6599998474121
17.0068740844727 -1.78031253814697 -11.6606254577637
17.0056247711182 -1.72437500953674 -11.6637496948242
17.0065631866455 -1.66750001907349 -11.6743745803833
17.0056247711182 -1.61031246185303 -11.6824998855591
17.0053119659424 -1.55437505245209 -11.6846876144409
17.0053119659424 -1.49749994277954 -11.6846876144409
17.0049991607666 -1.44187498092651 -11.6834373474121
17.0053119659424 -1.38468754291534 -11.6840629577637
17.0068740844727 -1.32749998569489 -11.6878128051758
17.0071868896484 -1.27187502384186 -11.6909370422363
17.0071868896484 -1.2146874666214 -11.6887502670288
17.0071868896484 -1.15750002861023 -11.6756248474121
17.0071868896484 -1.10000002384186 -11.6721878051758
17.0078125 -1.0428124666214 -11.6687498092651
17.0118751525879 -0.987187504768372 -11.6556253433228
17.0137500762939 -0.930000007152557 -11.6434373855591
17.0128116607666 -0.872500002384186 -11.639687538147
17.0128116607666 -0.815312504768372 -11.6324996948242
17.0143756866455 -0.759687483310699 -11.6184377670288
17.0171871185303 -0.702499985694885 -11.6068754196167
17.0190620422363 -0.644999980926514 -11.6015625
17.0178127288818 -0.587812483310699 -11.6056251525879
17.0181255340576 -0.532187521457672 -11.6065626144409
17.0153121948242 -0.474999994039536 -11.5871877670288
17.0134372711182 -0.417812496423721 -11.5656251907349
17.0131244659424 -0.362187504768372 -11.547812461853
17.0137500762939 -0.305000007152557 -11.53125
17.0140628814697 -0.247812494635582 -11.5109376907349
17.0153121948242 -0.192187502980232 -11.4981250762939
17.0171871185303 -0.135000005364418 -11.4896879196167
17.0181255340576 -0.0775000005960464 -11.4781246185303
17.0203132629395 -0.021874999627471 -11.4590625762939
17.0206241607666 0.0353124998509884 -11.446249961853
17.0206241607666 0.0928125008940697 -11.4293746948242
17.0200004577637 0.149687498807907 -11.4078121185303
17.0221881866455 0.207187503576279 -11.3971872329712
17.0215625762939 0.26468750834465 -11.3874998092651
17.0228118896484 0.321875005960464 -11.374062538147
17.0231246948242 0.377499997615814 -11.3631248474121
17.0234375 0.434687495231628 -11.3615627288818
17.0246868133545 0.491874992847443 -11.3615627288818
17.0246868133545 0.547500014305115 -11.3609371185303
17.0231246948242 0.604687511920929 -11.359375
17.0234375 0.662187516689301 -11.3556251525879
17.0265617370605 0.719687521457672 -11.3518753051758
17.0290622711182 0.776875019073486 -11.3512496948242
17.0296878814697 0.832499980926514 -11.3484373092651
17.0306243896484 0.889687478542328 -11.3459377288818
17.0315628051758 0.947187483310699 -11.3471870422363
17.0309371948242 1.00437498092651 -11.3431253433228
17.0318756103516 1.05999994277954 -11.3378124237061
17.0318756103516 1.1171875 -11.3356246948242
17.0315628051758 1.17468750476837 -11.3318748474121
17.0303115844727 1.23187494277954 -11.3234376907349
17.0296878814697 1.28781247138977 -11.3109378814697
17.0306243896484 1.34500002861023 -11.3024997711182
17.0324993133545 1.4021874666214 -11.2928123474121
17.0343742370605 1.45781254768372 -11.288125038147
17.0346870422363 1.51499998569489 -11.2831249237061
17.0337505340576 1.57218754291534 -11.2756252288818
17.0353126525879 1.62843751907349 -11.2553129196167
17.0365619659424 1.68687498569489 -11.2375001907349
17.0378131866455 1.74437499046326 -11.2200002670288
17.0403118133545 1.80031251907349 -11.2049999237061
17.0387496948242 1.85749995708466 -11.1937503814697
17.0400009155273 1.91468751430511 -11.1746873855591
17.0418758392334 1.97031247615814 -11.1565628051758
17.0424995422363 2.02812504768372 -11.1465625762939
17.0412502288818 2.08687496185303 -11.1215629577637
17.0443744659424 2.14468741416931 -11.0984373092651
17.0471878051758 2.20031261444092 -11.0793752670288
17.0493755340576 2.2578125 -11.0524997711182
17.0496883392334 2.31531238555908 -11.0275001525879
17.0499992370605 2.37249994277954 -11.0081253051758
17.0524997711182 2.4300000667572 -10.9856252670288
17.0553131103516 2.48749995231628 -10.9684371948242
17.0571880340576 2.54500007629395 -10.944375038147
17.0562496185303 2.60249996185303 -10.9243745803833
17.0596866607666 2.65968751907349 -10.9028129577637
17.0615615844727 2.71593761444092 -10.8778123855591
17.0606250762939 2.77468752861023 -10.8534374237061
17.0621871948242 2.83249998092651 -10.8262500762939
17.0631256103516 2.88843750953674 -10.7971878051758
17.0634384155273 2.94718742370605 -10.7618751525879
17.0681247711182 3.00500011444092 -10.7331247329712
17.0728130340576 3.06312489509583 -10.6996879577637
17.0728130340576 3.12218761444092 -10.6662502288818
17.0743751525879 3.1800000667572 -10.6228122711182
17.0756244659424 3.23749995231628 -10.5924997329712
17.0762500762939 3.29500007629395 -10.5631246566772
17.0796871185303 3.35249996185303 -10.5281248092651
17.0825004577637 3.41000008583069 -10.4915628433228
17.0849990844727 3.46781253814697 -10.460000038147
17.0871868133545 3.52718758583069 -10.4231252670288
17.0900001525879 3.58500003814697 -10.3850002288818
17.0946884155273 3.64281249046326 -10.3406248092651
17.0971870422363 3.70218753814697 -10.3103122711182
17.0996875762939 3.75999999046326 -10.2746877670288
17.1009368896484 3.81718754768372 -10.235312461853
17.1025009155273 3.8753125667572 -10.1906251907349
17.1053123474121 3.93437504768372 -10.1409378051758
17.1084365844727 3.99281239509583 -10.0909376144409
17.1128120422363 4.05187511444092 -10.0424995422363
17.1171875 4.11062479019165 -9.99874973297119
17.1224994659424 4.16968727111816 -9.94999980926514
17.125 4.22781229019165 -9.90250015258789
17.1281242370605 4.28562498092651 -9.85656261444092
17.1321868896484 4.3443751335144 -9.81281280517578
17.1375007629395 4.40312480926514 -9.7709379196167
17.1418743133545 4.46250009536743 -9.7134370803833
17.1453132629395 4.52250003814697 -9.64656257629395
17.1509380340576 4.58187484741211 -9.5884370803833
17.1581249237061 4.640625 -9.53812503814697
17.1618747711182 4.70031261444092 -9.46843719482422
17.1656246185303 4.75968742370605 -9.39562511444092
17.1721878051758 4.81937503814697 -9.33156204223633
17.1774997711182 4.87812519073486 -9.26968765258789
17.1825008392334 4.93781232833862 -9.20531272888184
17.1875 4.99781227111816 -9.14437484741211
17.1928119659424 5.05749988555908 -9.08031272888184
17.1987495422363 5.11749982833862 -9.01531219482422
17.2046871185303 5.17749977111816 -8.95374965667725
26.7528133392334 0.600312471389771 -11.0368747711182
26.7562503814697 0.545000016689301 -11.0024995803833
26.7584381103516 0.489687502384186 -10.9712495803833
26.7628116607666 0.432500004768372 -10.9375
26.7687492370605 0.375312507152557 -10.8996877670288
26.7724990844727 0.319687485694885 -10.8578128814697
26.7756252288818 0.262499988079071 -10.8228120803833
17.1037502288818 -2.74468755722046 -11.4193754196167
17.1018753051758 -2.6875 -11.4493751525879
17.1021881103516 -2.63031244277954 -11.4715623855591
17.0996875762939 -2.57468748092651 -11.4818754196167
17.0962505340576 -2.51749992370605 -11.4962501525879
17.0949993133545 -2.46000003814697 -11.5137500762939
17.0949993133545 -2.40281248092651 -11.5412502288818
17.0940628051758 -2.34718751907349 -11.5749998092651
17.0909366607666 -2.28999996185303 -11.608437538147
17.0896873474121 -2.23281240463257 -11.6293754577637
17.0884380340576 -2.17718744277954 -11.6418752670288
17.0878124237061 -2.11999988555908 -11.6499996185303
17.0893745422363 -2.0628125667572 -11.6640625
17.0893745422363 -2.00718760490417 -11.6703128814697
17.0878124237061 -1.95000004768372 -11.6740627288818
17.0859375 -1.89281249046326 -11.6875
17.0865631103516 -1.83718752861023 -11.703125
17.0862503051758 -1.78031253814697 -11.7049999237061
17.0846881866455 -1.72468745708466 -11.696249961853
17.0831241607666 -1.66750001907349 -11.6981248855591
17.0825004577637 -1.61031246185303 -11.7103128433228
17.0828132629395 -1.5546875 -11.7190628051758
17.0831241607666 -1.49781250953674 -11.7234373092651
17.0831241607666 -1.44218754768372 -11.7234373092651
17.0828132629395 -1.38499999046326 -11.7190628051758
17.0831241607666 -1.32781255245209 -11.7150001525879
17.0831241607666 -1.27218747138977 -11.7150001525879
17.0834369659424 -1.2150000333786 -11.7150001525879
17.0849990844727 -1.15750002861023 -11.7109375
17.0853118896484 -1.10000002384186 -11.7049999237061
17.0856246948242 -1.0428124666214 -11.6959371566772
17.0878124237061 -0.987187504768372 -11.6893749237061
17.0906257629395 -0.930000007152557 -11.6824998855591
17.0925006866455 -0.872500002384186 -11.6746873855591
17.0931243896484 -0.815312504768372 -11.6668748855591
17.09375 -0.759687483310699 -11.6615629196167
17.0953121185303 -0.702499985694885 -11.6512498855591
17.0965633392334 -0.644999980926514 -11.6393747329712
17.0953121185303 -0.587812483310699 -11.6356248855591
17.0949993133545 -0.532187521457672 -11.6350002288818
17.0928115844727 -0.474999994039536 -11.6246871948242
17.0925006866455 -0.417812496423721 -11.6087503433228
17.0925006866455 -0.362187504768372 -11.5878124237061
17.0925006866455 -0.305000007152557 -11.5646877288818
17.0918750762939 -0.247812494635582 -11.5471878051758
17.0931243896484 -0.192187502980232 -11.5328121185303
17.0946884155273 -0.135000005364418 -11.5259370803833
17.0968742370605 -0.0778125002980232 -11.5190620422363
17.0987491607666 -0.0221874993294477 -11.506875038147
17.0981254577637 0.0350000001490116 -11.4975004196167
17.0990619659424 0.0921875014901161 -11.4825000762939
17.0993747711182 0.148124992847443 -11.4671878814697
17.0996875762939 0.205312505364418 -11.4612503051758
17.0996875762939 0.262812495231628 -11.4518747329712
17.1015625 0.319999992847443 -11.4415626525879
17.1021881103516 0.375625014305115 -11.4318752288818
17.1021881103516 0.432812511920929 -11.4309377670288
17.1021881103516 0.490000009536743 -11.4315624237061
17.1018753051758 0.545624971389771 -11.4321870803833
17.1003131866455 0.602812528610229 -11.4356250762939
17.0996875762939 0.660312473773956 -11.4328126907349
17.1009368896484 0.717812478542328 -11.4350004196167
17.1028118133545 0.774999976158142 -11.4343748092651
17.1034374237061 0.830624997615814 -11.4293746948242
17.1049995422363 0.887812495231628 -11.4271879196167
17.1065616607666 0.9453125 -11.4284372329712
17.1053123474121 1.00218749046326 -11.4259376525879
17.1049995422363 1.05812501907349 -11.4237499237061
17.1049995422363 1.11531245708466 -11.4231252670288
17.1053123474121 1.17281246185303 -11.4174995422363
17.1049995422363 1.23000001907349 -11.4099998474121
17.1053123474121 1.28562498092651 -11.4012498855591
17.1068744659424 1.34281253814697 -11.3940620422363
17.1078128814697 1.39999997615814 -11.3803129196167
17.1100006103516 1.45562505722046 -11.375937461853
17.1112499237061 1.51281249523163 -11.3734378814697
17.1106243133545 1.5703125 -11.3668746948242
17.1115627288818 1.62718749046326 -11.3478126525879
17.1106243133545 1.68499994277954 -11.328125
17.1109371185303 1.7421875 -11.3109378814697
17.1143741607666 1.79781246185303 -11.2984371185303
17.1143741607666 1.85500001907349 -11.2862501144409
17.1153125762939 1.91250002384186 -11.2681245803833
17.1171875 1.96843755245209 -11.2478122711182
17.1187496185303 2.02687501907349 -11.2318754196167
17.1162490844727 2.08500003814697 -11.2062501907349
17.1184368133545 2.14218759536743 -11.1840629577637
17.1209373474121 2.19812488555908 -11.1628122329712
17.1228122711182 2.25687503814697 -11.1300001144409
17.1246871948242 2.31437492370605 -11.1121873855591
17.1253128051758 2.37031245231628 -11.0956249237061
17.1275005340576 2.42750000953674 -11.0765628814697
17.1315631866455 2.48499989509583 -11.0587501525879
17.1334381103516 2.54250001907349 -11.0328121185303
17.1312503814697 2.59999990463257 -11.0140628814697
17.1343746185303 2.65718746185303 -10.9965629577637
17.1365623474121 2.71343755722046 -10.9759378433228
17.1356258392334 2.77218747138977 -10.9471874237061
17.1371879577637 2.82968759536743 -10.9174995422363
17.1387500762939 2.88562488555908 -10.8900003433228
17.1384372711182 2.94468760490417 -10.8528127670288
17.140625 3.00250005722046 -10.8187503814697
17.1440620422363 3.06031250953674 -10.7865629196167
17.1468753814697 3.11968755722046 -10.7537498474121
17.1487503051758 3.17718744277954 -10.7143745422363
17.1515617370605 3.23499989509583 -10.6856250762939
17.1525001525879 3.29250001907349 -10.6509370803833
17.1537494659424 3.34999990463257 -10.6159372329712
17.1571884155273 3.40750002861023 -10.5812501907349
17.1593742370605 3.46531248092651 -10.5568752288818
17.1606254577637 3.52468752861023 -10.5215625762939
17.1634368896484 3.58249998092651 -10.4781246185303
17.1674995422363 3.6403124332428 -10.430624961853
17.1700000762939 3.69937491416931 -10.4021873474121
17.1728134155273 3.75718760490417 -10.3696870803833
17.1749992370605 3.81343746185303 -10.3353128433228
17.1778125762939 3.87218761444092 -10.2937498092651
17.1803131103516 3.93062496185303 -10.2434377670288
17.1843757629395 3.98968744277954 -10.1937503814697
17.1875 4.04812479019165 -10.1496877670288
17.1909370422363 4.10750007629395 -10.1056251525879
17.1949996948242 4.16687488555908 -10.0559377670288
17.1981258392334 4.22499990463257 -10.0100002288818
17.2015628814697 4.28218746185303 -9.96562480926514
17.2043743133545 4.34062480926514 -9.92593765258789
17.2093753814697 4.39937496185303 -9.88312530517578
17.2131252288818 4.45812511444092 -9.82406234741211
17.2175006866455 4.51781272888184 -9.76062488555908
17.2224998474121 4.5774998664856 -9.70468711853027
17.2281246185303 4.63718748092651 -9.65531253814697
17.2328128814697 4.69687509536743 -9.59218788146973
17.2378120422363 4.75531244277954 -9.52499961853027
17.2428131103516 4.81500005722046 -9.46156215667725
17.2478122711182 4.87468767166138 -9.39375019073486
17.2531242370605 4.93468761444092 -9.32625007629395
17.2587509155273 4.99437522888184 -9.26343727111816
17.2628116607666 5.05312490463257 -9.19843769073486
17.2678127288818 5.11281251907349 -9.13624954223633
17.2734375 5.1725001335144 -9.08093738555908
17.2806243896484 5.23250007629395 -9.01468753814697
17.2896881103516 5.29250001907349 -8.93812465667725
26.7800006866455 0.205312505364418 -10.7831249237061
26.7843742370605 0.150000005960464 -10.7462501525879
26.7884368896484 0.0946874991059303 -10.703125
26.7950000762939 0.0375000014901161 -10.6565628051758
17.1900005340576 -2.6875 -11.453125
17.1878128051758 -2.63031244277954 -11.483437538147
17.1846866607666 -2.57468748092651 -11.4971876144409
17.1803131103516 -2.51749992370605 -11.5109376907349
17.1759376525879 -2.46000003814697 -11.532187461853
17.1734371185303 -2.40281248092651 -11.5603122711182
17.1731243133545 -2.34718751907349 -11.594687461853
17.1706256866455 -2.28999996185303 -11.6328125
17.1700000762939 -2.23281240463257 -11.6565628051758
17.1690616607666 -2.17718744277954 -11.6734371185303
17.1678123474121 -2.11999988555908 -11.6828126907349
17.1674995422363 -2.0628125667572 -11.6946878433228
17.1671867370605 -2.00718760490417 -11.7006254196167
17.1665630340576 -1.95000004768372 -11.703125
17.1646881103516 -1.89281249046326 -11.7112503051758
17.1628131866455 -1.83718752861023 -11.7228126525879
17.1612491607666 -1.78031253814697 -11.7315626144409
17.1618747711182 -1.72468745708466 -11.7315626144409
17.1606254577637 -1.66750001907349 -11.7387504577637
17.1609382629395 -1.61031246185303 -11.7540626525879
17.1628131866455 -1.5546875 -11.7650003433228
17.1643753051758 -1.49781250953674 -11.7700004577637
17.1643753051758 -1.44218754768372 -11.7693748474121
17.1628131866455 -1.38499999046326 -11.7606248855591
17.1631240844727 -1.32781255245209 -11.7512502670288
17.1628131866455 -1.27218747138977 -11.749062538147
17.1631240844727 -1.2150000333786 -11.7475004196167
17.1646881103516 -1.15750002861023 -11.743124961853
17.1650009155273 -1.10000002384186 -11.7309379577637
17.1646881103516 -1.0428124666214 -11.7190628051758
17.1659374237061 -0.987187504768372 -11.7150001525879
17.1700000762939 -0.930000007152557 -11.7087497711182
17.1740627288818 -0.872500002384186 -11.6953125
17.1759376525879 -0.815312504768372 -11.6859378814697
17.1759376525879 -0.759687483310699 -11.6831245422363
17.1749992370605 -0.702499985694885 -11.6731252670288
17.1737499237061 -0.644999980926514 -11.6584377288818
17.1728134155273 -0.587812483310699 -11.6462497711182
17.1725006103516 -0.532187521457672 -11.6453123092651
17.1712493896484 -0.474999994039536 -11.647500038147
17.1721878051758 -0.417812496423721 -11.639687538147
17.1725006103516 -0.362187504768372 -11.6228122711182
17.1703128814697 -0.305000007152557 -11.6037502288818
17.1687507629395 -0.247812494635582 -11.59375
17.1712493896484 -0.192187502980232 -11.5834379196167
17.1712493896484 -0.135000005364418 -11.5765628814697
17.1728134155273 -0.0778125002980232 -11.571249961853
17.1749992370605 -0.0221874993294477 -11.5640621185303
17.1749992370605 0.0350000001490116 -11.563437461853
17.1759376525879 0.0918750017881393 -11.5578126907349
17.1768741607666 0.147812500596046 -11.5490627288818
17.1759376525879 0.204999998211861 -11.5403127670288
17.1759376525879 0.262499988079071 -11.5284376144409
17.1778125762939 0.319687485694885 -11.5212497711182
17.1800003051758 0.375312507152557 -11.5159378051758
17.1800003051758 0.432500004768372 -11.5184373855591
17.1784381866455 0.489687502384186 -11.5228128433228
17.1778125762939 0.545312523841858 -11.5262498855591
17.1768741607666 0.602187514305115 -11.5331249237061
17.1759376525879 0.659687519073486 -11.53125
17.1771869659424 0.717187523841858 -11.5365629196167
17.1790618896484 0.774375021457672 -11.5390625
17.1793746948242 0.829999983310699 -11.5346870422363
17.1796875 0.887187480926514 -11.5296878814697
17.1796875 0.944374978542328 -11.5231246948242
17.1790618896484 1.00062501430511 -11.5206251144409
17.1781253814697 1.05718755722046 -11.516562461853
17.1781253814697 1.11468744277954 -11.5137500762939
17.1793746948242 1.17218744754791 -11.5056247711182
17.1800003051758 1.22937500476837 -11.4968748092651
17.1803131103516 1.2849999666214 -11.4928121566772
17.1821880340576 1.34218752384186 -11.4862499237061
17.1831245422363 1.39937496185303 -11.4684371948242
17.1846866607666 1.45500004291534 -11.4568748474121
17.1859378814697 1.51218748092651 -11.4490623474121
17.1868743896484 1.56937503814697 -11.4421873092651
17.1868743896484 1.62531244754791 -11.428750038147
17.1849994659424 1.68250000476837 -11.4156246185303
17.1853122711182 1.74000000953674 -11.3996877670288
17.1871871948242 1.79562497138977 -11.3853120803833
17.1884384155273 1.85312497615814 -11.3718748092651
17.1896877288818 1.91156244277954 -11.3556251525879
17.1906242370605 1.96749997138977 -11.3371877670288
17.1934375762939 2.02500009536743 -11.321249961853
17.1931247711182 2.08249998092651 -11.3040628433228
17.1962509155273 2.13968753814697 -11.2840623855591
17.1984367370605 2.19593739509583 -11.2593746185303
17.1984367370605 2.25468754768372 -11.2231254577637
17.1996879577637 2.3121874332428 -11.2034378051758
17.2003116607666 2.36781239509583 -11.1853122711182
17.2012500762939 2.42499995231628 -11.1646871566772
17.2046871185303 2.48281240463257 -11.1418752670288
17.2065620422363 2.53999996185303 -11.1156253814697
17.2053127288818 2.59750008583069 -11.0943746566772
17.2075004577637 2.65531253814697 -11.0734376907349
17.2099990844727 2.71218752861023 -11.0553121566772
17.2099990844727 2.76999998092651 -11.0331249237061
17.2112503051758 2.82718753814697 -11.008749961853
17.2131252288818 2.8831250667572 -10.9821872711182
17.2146873474121 2.94218754768372 -10.9493751525879
17.2168750762939 3 -10.9200000762939
17.2193756103516 3.05781245231628 -10.8846874237061
17.2221870422363 3.1168749332428 -10.8474998474121
17.2246875762939 3.17343759536743 -10.8121871948242
17.2275009155273 3.23218750953674 -10.7843751907349
17.2293758392334 3.28999996185303 -10.75
17.2299995422363 3.34750008583069 -10.7156248092651
17.2318744659424 3.40499997138977 -10.6862497329712
17.2334365844727 3.46281242370605 -10.6599998474121
17.2356243133545 3.52218747138977 -10.6221876144409
17.2393741607666 3.57999992370605 -10.5784378051758
17.2421875 3.63750004768372 -10.5334377288818
17.2434368133545 3.6956250667572 -10.4956245422363
17.2471866607666 3.75437498092651 -10.461874961853
17.2503128051758 3.81062507629395 -10.4284372329712
17.2540626525879 3.86968755722046 -10.3900003433228
17.2556247711182 3.92781257629395 -10.3478126525879
17.2593746185303 3.98718738555908 -10.3015623092651
17.2625007629395 4.04531240463257 -10.2537498474121
17.2665634155273 4.10437488555908 -10.2078123092651
17.2696876525879 4.16312503814697 -10.1612501144409
17.2718753814697 4.22156238555908 -10.1168746948242
17.2753124237061 4.27843761444092 -10.0740623474121
17.2787494659424 4.33718729019165 -10.0390625
17.2828121185303 4.39562511444092 -9.99531269073486
17.2853126525879 4.45499992370605 -9.93656253814697
17.2900009155273 4.51437520980835 -9.87656211853027
17.2950000762939 4.57312488555908 -9.8228120803833
17.2999992370605 4.6328125 -9.77124977111816
17.3053131103516 4.69218730926514 -9.70968723297119
17.3115615844727 4.75031232833862 -9.64906215667725
17.3153133392334 4.80999994277954 -9.59093761444092
17.3196868896484 4.86999988555908 -9.52250003814697
17.3243751525879 4.92999982833862 -9.453125
26.8012504577637 -0.0196874998509884 -10.6068754196167
26.8043746948242 -0.075312502682209 -10.5637502670288
17.3384380340576 5.109375 -9.2603120803833
17.3443756103516 5.16781234741211 -9.20750045776367
17.3506240844727 5.22749996185303 -9.14437484741211
17.3596878051758 5.28749990463257 -9.06843757629395
26.8096866607666 -0.132499992847443 -10.5143747329712
26.8146877288818 -0.189687505364418 -10.4703121185303
26.8196868896484 -0.245312497019768 -10.421875
17.28125 -2.6875 -11.4518747329712
17.2759380340576 -2.63031244277954 -11.4893751144409
17.2712497711182 -2.57468748092651 -11.5065622329712
17.2671871185303 -2.51749992370605 -11.5209379196167
17.2612495422363 -2.46000003814697 -11.5443754196167
17.2574996948242 -2.40281248092651 -11.5721874237061
17.2578125 -2.34718751907349 -11.6081247329712
17.2540626525879 -2.28999996185303 -11.6437501907349
17.2509384155273 -2.23281240463257 -11.6653127670288
17.2487506866455 -2.17718744277954 -11.6881246566772
17.2474994659424 -2.11999988555908 -11.7012500762939
17.2459373474121 -2.0628125667572 -11.7062501907349
17.2437496185303 -2.00718760490417 -11.7115621566772
17.2437496185303 -1.95000004768372 -11.7146873474121
17.2428131103516 -1.89281249046326 -11.7156248092651
17.2409381866455 -1.83718752861023 -11.7200002670288
17.2387504577637 -1.78031253814697 -11.7371873855591
17.2399997711182 -1.72468745708466 -11.7543754577637
17.2406253814697 -1.66750001907349 -11.7712497711182
17.2421875 -1.61031246185303 -11.7853126525879
17.2440624237061 -1.5546875 -11.7956247329712
17.2446880340576 -1.49781250953674 -11.8009376525879
17.2443752288818 -1.44218754768372 -11.8000001907349
17.2434368133545 -1.38499999046326 -11.7921876907349
17.2456245422363 -1.32781255245209 -11.7834377288818
17.2450008392334 -1.27218747138977 -11.7787504196167
17.2450008392334 -1.2150000333786 -11.7734375
17.2453117370605 -1.15750002861023 -11.7687501907349
17.2450008392334 -1.10000002384186 -11.7565622329712
17.2443752288818 -1.0428124666214 -11.7409372329712
17.2465629577637 -0.987187504768372 -11.7306251525879
17.2509384155273 -0.930000007152557 -11.7212495803833
17.2531242370605 -0.872500002384186 -11.7081251144409
17.2531242370605 -0.815312504768372 -11.7006254196167
17.2537498474121 -0.759687483310699 -11.6996879577637
17.2543754577637 -0.702499985694885 -11.6931247711182
17.2540626525879 -0.644999980926514 -11.6831245422363
17.2528133392334 -0.587812483310699 -11.6721878051758
17.2528133392334 -0.532187521457672 -11.6700000762939
17.2528133392334 -0.474999994039536 -11.6731252670288
17.2528133392334 -0.417812496423721 -11.6715621948242
17.2534370422363 -0.362187504768372 -11.6612501144409
17.25 -0.305000007152557 -11.6490621566772
17.2471866607666 -0.248125001788139 -11.6387500762939
17.2496871948242 -0.192187502980232 -11.6293754577637
17.25 -0.135312497615814 -11.6243753433228
17.2503128051758 -0.078125 -11.6234378814697
17.2518749237061 -0.0225000008940697 -11.6196870803833
17.2525005340576 0.0343750007450581 -11.6190624237061
17.2537498474121 0.0906250029802322 -11.6149997711182
17.2546882629395 0.147187501192093 -11.6090621948242
17.2543754577637 0.204687505960464 -11.6043748855591
17.2543754577637 0.262187510728836 -11.6009378433228
17.2553119659424 0.31937500834465 -11.5965623855591
17.2584381103516 0.375 -11.5893745422363
17.2587509155273 0.432187497615814 -11.5900001525879
17.2565631866455 0.489374995231628 -11.5978126525879
17.2543754577637 0.544687509536743 -11.6078128814697
17.2528133392334 0.600624978542328 -11.6171875
17.2518749237061 0.657812476158142 -11.6196870803833
17.2521877288818 0.715312480926514 -11.6296873092651
17.2528133392334 0.772187471389771 -11.6356248855591
17.2531242370605 0.828125 -11.6262502670288
17.2525005340576 0.884999990463257 -11.6225004196167
17.2509384155273 0.942499995231628 -11.6149997711182
17.2509384155273 0.999374985694885 -11.6121873855591
17.2525005340576 1.05562496185303 -11.602499961853
17.2528133392334 1.11249995231628 -11.5990629196167
17.2534370422363 1.16999995708466 -11.5950002670288
17.2546882629395 1.22718751430511 -11.5856246948242
17.2549991607666 1.28281247615814 -11.5793752670288
17.2574996948242 1.3400000333786 -11.5718746185303
17.2590618133545 1.39718747138977 -11.5562496185303
17.2603130340576 1.453125 -11.5462503433228
17.2618751525879 1.50999999046326 -11.5396871566772
17.2621879577637 1.56749999523163 -11.5299997329712
17.2603130340576 1.62312495708466 -11.5131254196167
17.2590618133545 1.68062496185303 -11.4996871948242
17.2600002288818 1.73906254768372 -11.4828128814697
17.2612495422363 1.79499995708466 -11.4659376144409
17.2640628814697 1.85218751430511 -11.4553127288818
17.2646865844727 1.90968751907349 -11.4431247711182
17.2637500762939 1.96531248092651 -11.4243745803833
17.2662506103516 2.02250003814697 -11.4087495803833
17.2674999237061 2.08031249046326 -11.3956251144409
17.2703132629395 2.13781261444092 -11.3728122711182
17.2724990844727 2.19468760490417 -11.3478126525879
17.2740631103516 2.25250005722046 -11.3190622329712
17.2749996185303 2.30968761444092 -11.3012504577637
17.2765617370605 2.36531257629395 -11.2843751907349
17.2768745422363 2.42281246185303 -11.2637500762939
17.2778129577637 2.48156261444092 -11.2384376525879
17.2781257629395 2.53781247138977 -11.2081251144409
17.2784366607666 2.59531259536743 -11.1784372329712
17.2809371948242 2.65374994277954 -11.1534376144409
17.2843742370605 2.71031260490417 -11.1371879577637
17.2856254577637 2.76749992370605 -11.1206245422363
17.2887496948242 2.82468748092651 -11.0993747711182
17.2896881103516 2.88062500953674 -11.0765628814697
17.2900009155273 2.93968749046326 -11.045937538147
17.2912502288818 2.99749994277954 -11.0162496566772
17.2931251525879 3.05531239509583 -10.9828128814697
17.2956256866455 3.11437511444092 -10.9475002288818
17.2993755340576 3.17062497138977 -10.9121875762939
17.3021869659424 3.22968745231628 -10.8834371566772
17.3043746948242 3.28749990463257 -10.850625038147
17.3050003051758 3.34500002861023 -10.8146877288818
17.3062496185303 3.40249991416931 -10.7837495803833
17.3093757629395 3.46031260490417 -10.7515621185303
17.3121871948242 3.51937508583069 -10.7128124237061
17.3146877288818 3.57750010490417 -10.6731252670288
17.3171882629395 3.63499999046326 -10.631875038147
17.3184375762939 3.69281244277954 -10.5900001525879
17.3218746185303 3.75187492370605 -10.5612497329712
17.3256244659424 3.80812501907349 -10.5275001525879
17.3296871185303 3.8671875 -10.4856252670288
17.3306255340576 3.92531251907349 -10.4459371566772
17.3328132629395 3.984375 -10.4021873474121
17.3356246948242 4.04218769073486 -10.3562498092651
17.3396873474121 4.10062503814697 -10.3100004196167
17.3421878814697 4.15968751907349 -10.2624998092651
17.3440628051758 4.21781253814697 -10.2206249237061
17.3474998474121 4.27531242370605 -10.1768751144409
17.3512496948242 4.33437490463257 -10.1371879577637
17.3562507629395 4.39281272888184 -10.09375
17.3584365844727 4.45187520980835 -10.0446872711182
17.3628120422363 4.51062488555908 -9.99156284332275
17.3678131103516 4.5696873664856 -9.94156265258789
17.3728122711182 4.62937498092651 -9.89124965667725
17.3775005340576 4.68781232833862 -9.8306245803833
17.3840618133545 4.74562501907349 -9.76843738555908
17.3871879577637 4.80499982833862 -9.71531295776367
17.390625 4.86499977111816 -9.65750026702881
17.3953132629395 4.92500019073486 -9.59031295776367
17.4003124237061 4.9850001335144 -9.52468776702881
26.8250007629395 -0.302187502384186 -10.3746871948242
26.828125 -0.357812494039536 -10.3393745422363
17.4159374237061 5.16312503814697 -9.33625030517578
17.4209365844727 5.22249984741211 -9.27187538146973
17.4300003051758 5.28249979019165 -9.19937515258789
17.4375 5.34250020980835 -9.13000011444092
26.8331241607666 -0.414687514305115 -10.297812461853
26.8387508392334 -0.470625013113022 -10.2531251907349
26.8425006866455 -0.527499973773956 -10.2115621566772
26.8487491607666 -0.584999978542328 -10.170937538147
26.8525009155273 -0.642499983310699 -10.1328125
17.3578128814697 -2.51749992370605 -11.5034370422363
17.3534374237061 -2.46000003814697 -11.5246877670288
17.3512496948242 -2.40281248092651 -11.5487499237061
17.3512496948242 -2.34718751907349 -11.5812501907349
17.3449993133545 -2.28999996185303 -11.6218748092651
17.3387508392334 -2.23281240463257 -11.6521873474121
17.3340625762939 -2.17718744277954 -11.6818752288818
17.3318748474121 -2.11999988555908 -11.7037496566772
17.3293743133545 -2.0628125667572 -11.7146873474121
17.3262500762939 -2.00718760490417 -11.725625038147
17.3265628814697 -1.95000004768372 -11.7340621948242
17.3253116607666 -1.89281249046326 -11.7421875
17.3237495422363 -1.83718752861023 -11.7487497329712
17.3206253051758 -1.78031253814697 -11.7606248855591
17.3206253051758 -1.72468745708466 -11.7696876525879
17.3218746185303 -1.66750001907349 -11.7790622711182
17.3225002288818 -1.61031246185303 -11.7862501144409
17.3228130340576 -1.5546875 -11.7928123474121
17.3228130340576 -1.49781250953674 -11.797812461853
17.3228130340576 -1.44218754768372 -11.7993745803833
17.3231258392334 -1.38499999046326 -11.8028125762939
17.3250007629395 -1.32781255245209 -11.8024997711182
17.3250007629395 -1.27218747138977 -11.8003120422363
17.3262500762939 -1.2150000333786 -11.7943754196167
17.3265628814697 -1.15750002861023 -11.7859373092651
17.3271865844727 -1.10000002384186 -11.7759370803833
17.3293743133545 -1.0428124666214 -11.7593746185303
17.3328132629395 -0.987187504768372 -11.7425003051758
17.3359375 -0.930000007152557 -11.7281246185303
17.3349990844727 -0.872500002384186 -11.7174997329712
17.3325004577637 -0.815312504768372 -11.7131252288818
17.3334369659424 -0.759687483310699 -11.7124996185303
17.3325004577637 -0.702499985694885 -11.7065620422363
17.3318748474121 -0.644999980926514 -11.6984376907349
17.3318748474121 -0.588124990463257 -11.6903123855591
17.3337497711182 -0.532187521457672 -11.6890621185303
17.3346881866455 -0.475312501192093 -11.6968746185303
17.3328132629395 -0.418125003576279 -11.7009372711182
17.3318748474121 -0.362187504768372 -11.6949996948242
17.3296871185303 -0.30562499165535 -11.6893749237061
17.3287506103516 -0.249375000596046 -11.6812496185303
17.3293743133545 -0.193124994635582 -11.678750038147
17.3290634155273 -0.136875003576279 -11.6803121566772
17.3278121948242 -0.0799999982118607 -11.6856250762939
17.3278121948242 -0.0243749991059303 -11.6859378814697
17.328125 0.0328124985098839 -11.6859378814697
17.3284378051758 0.0896874964237213 -11.6846876144409
17.3296871185303 0.145624995231628 -11.6843748092651
17.3299999237061 0.202812492847443 -11.6843748092651
17.3303127288818 0.260312497615814 -11.6850004196167
17.3303127288818 0.317499995231628 -11.6843748092651
17.3321876525879 0.373124986886978 -11.6793746948242
17.3321876525879 0.430312514305115 -11.6793746948242
17.3299999237061 0.487500011920929 -11.6878128051758
17.328125 0.543124973773956 -11.7053127288818
17.3271865844727 0.599687516689301 -11.7243747711182
17.3256244659424 0.657187521457672 -11.7290620803833
17.3256244659424 0.714062511920929 -11.7315626144409
17.3271865844727 0.770312488079071 -11.7309379577637
17.3287506103516 0.826874971389771 -11.7200002670288
17.3278121948242 0.8828125 -11.7184371948242
17.3259372711182 0.939999997615814 -11.7112503051758
17.3259372711182 0.997500002384186 -11.7071876525879
17.3290634155273 1.05406248569489 -11.6975002288818
17.3296871185303 1.11031246185303 -11.6953125
17.3293743133545 1.16750001907349 -11.6903123855591
17.3299999237061 1.22468745708466 -11.6778125762939
17.3296871185303 1.28062498569489 -11.670937538147
17.3318748474121 1.33749997615814 -11.6609373092651
17.3328132629395 1.39499998092651 -11.6468753814697
17.3346881866455 1.45187497138977 -11.6390628814697
17.3368759155273 1.50843751430511 -11.6309375762939
17.3365631103516 1.5662499666214 -11.616250038147
17.3356246948242 1.62249994277954 -11.5978126525879
17.3365631103516 1.6796875 -11.5853128433228
17.3371868133545 1.73718750476837 -11.5725002288818
17.3374996185303 1.7928124666214 -11.5609378814697
17.3393745422363 1.85000002384186 -11.5453128814697
17.3400001525879 1.90718746185303 -11.532187461853
17.3406257629395 1.96312499046326 -11.5174999237061
17.34375 2.02062511444092 -11.5028123855591
17.3434371948242 2.07937502861023 -11.4825000762939
17.3446884155273 2.13687491416931 -11.4615621566772
17.3459377288818 2.19281244277954 -11.446249961853
17.3471870422363 2.25 -11.4237499237061
17.3481254577637 2.30718755722046 -11.407187461853
17.3496875762939 2.36281251907349 -11.3890628814697
17.3503131866455 2.42062497138977 -11.3649997711182
17.3521881103516 2.47937488555908 -11.3403129577637
17.3531246185303 2.53531241416931 -11.3087501525879
17.3549995422363 2.59249997138977 -11.2771873474121
17.3571872711182 2.65062499046326 -11.2528123855591
17.3596878051758 2.70749998092651 -11.2318754196167
17.3609371185303 2.76500010490417 -11.2087497711182
17.3643741607666 2.82218742370605 -11.186562538147
17.3649997711182 2.87812495231628 -11.171875
17.3659381866455 2.9371874332428 -11.1450004577637
17.3690624237061 2.99499988555908 -11.1165628433228
17.3700008392334 3.05281257629395 -11.085000038147
17.3706245422363 3.11187505722046 -11.0534372329712
17.3724994659424 3.16812491416931 -11.0184373855591
17.3753128051758 3.22718739509583 -10.9821872711182
17.3778133392334 3.28500008583069 -10.9481248855591
17.3799991607666 3.34249997138977 -10.9143753051758
17.3818740844727 3.40000009536743 -10.8812503814697
17.3846874237061 3.45749998092651 -10.8500003814697
17.3868751525879 3.515625 -10.8156251907349
17.3887500762939 3.57468748092651 -10.7809371948242
17.3921871185303 3.6324999332428 -10.7403125762939
17.3946876525879 3.69031238555908 -10.6949996948242
17.3968753814697 3.74906253814697 -10.6618747711182
17.4018745422363 3.80562496185303 -10.6237497329712
17.40625 3.86437511444092 -10.5825004577637
17.4071884155273 3.92249989509583 -10.5496873855591
17.4081249237061 3.98031258583069 -10.5106248855591
17.4099998474121 4.03812503814697 -10.4662504196167
17.4128131866455 4.09749984741211 -10.4174995422363
17.4159374237061 4.1568751335144 -10.3684377670288
17.4193744659424 4.21468734741211 -10.3306245803833
17.4225006103516 4.27218770980835 -10.2868747711182
17.4253120422363 4.33062505722046 -10.2409372329712
17.4296875 4.38937520980835 -10.1928129196167
17.4328117370605 4.44812488555908 -10.1496877670288
