VERSION 0.7
FIELDS x y z
SIZE 4 4 4
TYPE F F F
COUNT 1 1 1
WIDTH 2399
HEIGHT 1
VIEWPOINT 0 0 0 1 0 0 0
POINTS 2399
DATA ascii
6.672 10.587 15.513
6.673 10.648 15.455
6.671 10.708 15.390
6.670 10.768 15.330
6.670 10.830 15.279
6.669 10.891 15.232
6.669 10.952 15.180
6.668 11.013 15.137
6.667 11.075 15.094
6.666 11.138 15.055
6.665 11.200 15.024
6.664 11.262 14.982
6.663 11.323 14.949
6.662 11.386 14.923
6.661 11.449 14.893
6.660 11.511 14.873
6.661 11.574 14.851
6.660 11.636 14.830
6.659 11.699 14.808
6.658 11.761 14.791
6.659 11.825 14.771
6.661 11.888 14.751
6.662 11.952 14.735
6.662 12.015 14.721
6.663 12.078 14.708
6.663 12.142 14.695
6.661 12.206 14.686
6.662 12.270 14.678
6.661 12.334 14.681
6.661 12.398 14.683
6.662 12.462 14.686
6.661 12.527 14.684
6.660 12.590 14.686
6.660 12.655 14.687
6.660 12.720 14.695
6.659 12.785 14.711
6.661 12.851 14.734
6.664 12.918 14.761
6.667 12.985 14.799
6.668 13.050 14.833
6.667 13.117 14.864
6.666 13.183 14.889
6.666 13.248 14.917
6.667 13.315 14.949
6.669 13.381 14.990
6.673 13.450 15.036
6.678 13.518 15.088
6.682 13.585 15.148
6.685 13.655 15.213
6.686 13.723 15.280
6.689 13.792 15.344
6.689 13.858 15.403
6.688 13.928 15.470
6.688 13.998 15.541
6.688 14.068 15.617
6.691 14.138 15.687
6.698 14.208 15.764
6.703 14.278 15.839
6.705 14.348 15.915
6.708 14.417 15.993
6.713 14.488 16.065
6.716 14.558 16.144
6.717 14.628 16.230
6.718 14.700 16.315
6.722 14.773 16.418
6.723 14.845 16.518
6.725 14.917 16.620
6.730 14.988 16.726
15.473 12.218 13.004
15.473 12.153 13.002
15.476 12.090 12.999
15.479 12.026 12.994
15.480 11.962 12.989
15.480 11.898 12.988
15.480 11.835 12.993
15.479 11.771 12.999
15.478 11.709 13.007
15.477 11.646 13.008
15.477 11.582 13.016
6.870 7.845 20.623
6.868 7.908 20.572
6.867 7.972 20.523
6.868 8.035 20.475
15.479 11.520 13.029
15.480 11.456 13.045
15.482 11.395 13.064
15.483 11.332 13.074
15.485 11.269 13.095
15.487 11.207 13.115
15.489 11.143 13.133
15.488 11.082 13.158
15.490 11.019 13.184
15.490 10.958 13.218
15.489 10.897 13.257
15.490 10.835 13.297
15.492 10.775 13.344
15.494 10.713 13.394
15.492 10.652 13.442
15.494 10.591 13.503
15.496 10.532 13.577
15.495 10.473 13.651
15.493 10.413 13.727
15.493 10.353 13.811
15.497 10.294 13.896
15.504 10.235 13.991
15.700 9.182 17.223
15.702 9.117 17.235
15.702 9.053 17.238
15.702 8.987 17.240
15.701 8.921 17.242
15.700 8.857 17.248
15.697 8.793 17.257
15.695 8.729 17.271
15.693 8.665 17.296
15.694 8.602 17.325
15.697 8.538 17.363
15.700 8.475 17.417
15.703 8.415 17.486
15.709 8.353 17.555
15.715 8.292 17.633
15.721 8.231 17.712
15.728 8.169 17.787
15.737 8.108 17.866
15.741 8.045 17.931
15.744 7.983 17.993
6.763 10.581 15.431
6.764 10.642 15.379
6.762 10.703 15.316
6.759 10.763 15.262
6.758 10.825 15.214
6.757 10.887 15.167
6.756 10.948 15.119
6.755 11.010 15.073
6.754 11.073 15.033
6.754 11.135 15.003
6.755 11.197 14.974
6.754 11.258 14.932
6.753 11.320 14.895
6.751 11.383 14.866
6.749 11.445 14.837
6.748 11.508 14.815
6.749 11.570 14.794
6.750 11.633 14.775
6.749 11.695 14.750
6.750 11.757 14.727
6.748 11.821 14.703
6.748 11.884 14.684
6.748 11.948 14.669
6.748 12.010 14.655
6.749 12.074 14.639
6.750 12.138 14.623
6.750 12.200 14.612
6.751 12.265 14.601
6.750 12.329 14.598
6.750 12.392 14.596
6.750 12.456 14.594
6.750 12.522 14.600
6.750 12.585 14.610
6.750 12.650 14.613
6.749 12.715 14.619
6.748 12.778 14.629
6.748 12.844 14.644
6.750 12.911 14.668
6.752 12.979 14.709
6.752 13.043 14.743
6.752 13.110 14.773
6.753 13.177 14.806
6.754 13.243 14.836
6.756 13.310 14.866
6.758 13.375 14.901
6.761 13.443 14.938
6.765 13.510 14.987
6.769 13.578 15.054
6.772 13.648 15.126
6.775 13.716 15.194
6.778 13.785 15.255
6.777 13.853 15.313
6.776 13.922 15.379
6.777 13.992 15.449
6.778 14.062 15.520
6.781 14.131 15.594
6.786 14.201 15.672
6.792 14.272 15.748
6.795 14.341 15.820
6.798 14.410 15.902
6.802 14.480 15.981
6.804 14.551 16.060
6.805 14.622 16.142
6.806 14.693 16.225
6.810 14.765 16.321
6.813 14.838 16.427
6.815 14.910 16.530
6.818 14.981 16.633
15.747 7.919 18.048
15.748 7.856 18.096
15.751 7.794 18.155
15.750 7.730 18.198
15.750 7.668 18.243
15.751 7.605 18.300
15.754 7.543 18.352
15.755 7.480 18.398
15.760 7.418 18.456
15.766 7.355 18.517
6.962 7.777 20.573
6.963 7.840 20.523
6.962 7.903 20.467
6.960 7.967 20.412
6.958 8.030 20.361
15.770 7.292 18.586
15.775 7.230 18.659
6.948 8.220 20.184
15.778 7.168 18.744
15.783 7.107 18.837
13.969 8.232 19.125
13.967 8.168 19.148
13.968 8.103 19.181
13.970 8.039 19.206
15.450 14.723 14.166
15.444 14.655 14.099
15.438 14.586 14.040
15.434 14.518 13.984
15.423 14.315 13.818
15.420 14.247 13.773
15.417 14.178 13.725
15.414 14.112 13.677
15.413 14.045 13.634
15.410 13.978 13.588
15.408 13.912 13.541
15.408 13.843 13.498
15.405 13.778 13.462
15.403 13.712 13.426
15.402 13.645 13.390
15.400 13.578 13.348
15.398 13.512 13.309
15.396 13.447 13.280
15.394 13.382 13.252
15.389 13.315 13.210
15.388 13.249 13.183
15.388 13.183 13.162
15.385 13.118 13.131
15.384 13.053 13.107
15.385 12.988 13.078
15.384 12.923 13.064
15.383 12.857 13.043
15.382 12.793 13.023
15.382 12.727 13.002
15.381 12.663 12.989
15.380 12.598 12.984
6.853 10.453 15.489
6.854 10.515 15.420
6.853 10.576 15.354
6.852 10.637 15.301
6.850 10.698 15.245
6.849 10.758 15.198
6.849 10.820 15.153
6.846 10.883 15.107
6.844 10.945 15.066
6.844 11.007 15.023
6.843 11.070 14.982
6.843 11.132 14.951
6.843 11.193 14.918
6.843 11.255 14.880
6.842 11.317 14.845
6.842 11.380 14.816
6.841 11.443 14.785
6.839 11.505 14.760
6.838 11.568 14.740
6.838 11.630 14.718
6.838 11.692 14.688
6.840 11.753 14.664
6.838 11.817 14.642
6.837 11.881 14.616
6.837 11.944 14.600
6.837 12.006 14.584
6.838 12.070 14.567
6.838 12.134 14.555
6.840 12.196 14.542
6.842 12.260 14.528
6.842 12.323 14.516
6.840 12.386 14.511
6.839 12.451 14.511
6.838 12.517 14.521
6.838 12.580 14.533
6.838 12.645 14.536
6.838 12.710 14.542
6.839 12.773 14.548
6.838 12.838 14.560
6.840 12.905 14.581
6.841 12.973 14.621
6.841 13.038 14.653
6.841 13.105 14.683
6.843 13.172 14.721
6.843 13.238 14.754
6.845 13.304 14.785
6.847 13.368 14.814
6.849 13.436 14.846
6.851 13.504 14.898
6.855 13.573 14.971
6.858 13.642 15.043
6.860 13.710 15.105
6.861 13.779 15.166
6.862 13.846 15.226
6.865 13.915 15.290
6.868 13.985 15.356
6.869 14.055 15.426
6.872 14.125 15.505
6.876 14.195 15.586
6.880 14.265 15.663
6.883 14.335 15.735
6.887 14.405 15.819
6.890 14.475 15.904
6.893 14.545 15.984
6.894 14.617 16.067
6.895 14.688 16.155
6.898 14.760 16.248
6.902 14.832 16.348
6.906 14.904 16.444
6.908 14.973 16.541
15.381 12.534 12.979
15.383 12.468 12.961
15.381 12.405 12.947
15.381 12.340 12.938
15.383 12.277 12.933
15.384 12.213 12.930
15.384 12.149 12.928
15.385 12.085 12.924
15.387 12.022 12.922
15.389 11.958 12.921
7.052 7.710 20.536
7.053 7.773 20.474
7.054 7.835 20.424
7.053 7.898 20.365
7.050 7.962 20.303
7.047 8.025 20.249
7.043 8.088 20.199
7.039 8.152 20.146
7.035 8.215 20.089
7.033 8.278 20.025
7.030 8.340 19.954
7.029 8.403 19.883
15.389 11.895 12.922
15.387 11.832 12.928
15.385 11.768 12.934
15.383 11.705 12.944
15.383 11.642 12.948
15.383 11.578 12.961
15.384 11.516 12.973
15.386 11.453 12.991
15.388 11.392 13.016
15.388 11.330 13.034
15.388 11.267 13.059
15.390 11.205 13.086
15.393 11.143 13.109
15.393 11.080 13.133
15.393 11.018 13.165
15.393 10.958 13.210
15.393 10.897 13.256
15.395 10.835 13.297
15.398 10.775 13.346
15.400 10.713 13.399
15.398 10.653 13.455
15.400 10.593 13.524
15.400 10.533 13.599
15.398 10.473 13.673
15.397 10.415 13.755
15.398 10.355 13.849
15.610 9.183 17.267
15.611 9.118 17.275
15.610 9.054 17.279
15.609 8.988 17.276
15.608 8.923 17.276
15.608 8.858 17.283
6.943 10.330 15.565
6.942 10.388 15.487
6.942 10.449 15.418
6.942 10.511 15.355
6.940 10.572 15.296
6.938 10.633 15.245
6.938 10.695 15.192
6.937 10.755 15.142
6.937 10.818 15.096
6.935 10.880 15.052
6.934 10.942 15.011
6.933 11.003 14.968
6.933 11.066 14.930
6.932 11.129 14.899
6.932 11.190 14.868
6.930 11.252 14.831
6.930 11.313 14.798
6.929 11.377 14.768
6.928 11.440 14.736
6.928 11.501 14.708
6.929 11.564 14.680
6.929 11.626 14.655
6.928 11.688 14.628
6.928 11.750 14.608
6.926 11.813 14.587
6.926 11.877 14.558
6.926 11.940 14.540
6.927 12.002 14.521
6.929 12.066 14.504
6.929 12.129 14.489
6.930 12.191 14.471
6.930 12.255 14.460
6.930 12.319 14.451
6.929 12.383 14.447
6.928 12.447 14.447
6.928 12.512 14.450
6.929 12.575 14.455
6.929 12.640 14.457
6.928 12.705 14.463
6.928 12.768 14.473
6.929 12.834 14.488
6.930 12.900 14.505
6.931 12.967 14.539
6.932 13.033 14.568
6.933 13.100 14.606
6.934 13.167 14.644
6.933 13.231 14.668
6.934 13.298 14.701
6.936 13.363 14.736
6.938 13.430 14.774
6.940 13.498 14.820
6.943 13.567 14.888
6.944 13.637 14.958
6.946 13.703 15.017
6.946 13.773 15.078
6.950 13.840 15.140
6.954 13.909 15.206
6.957 13.978 15.272
6.958 14.049 15.343
6.962 14.118 15.416
6.968 14.188 15.494
6.972 14.259 15.575
6.974 14.330 15.660
6.976 14.400 15.744
6.980 14.470 15.832
6.982 14.540 15.913
6.983 14.611 15.993
6.981 14.682 16.082
6.985 14.753 16.172
6.990 14.825 16.267
6.995 14.898 16.364
6.998 14.968 16.462
6.998 15.040 16.564
15.604 8.793 17.297
15.603 8.730 17.313
15.603 8.668 17.355
15.604 8.605 17.389
15.607 8.541 17.425
15.611 8.478 17.478
15.662 8.050 18.018
15.665 7.987 18.073
15.667 7.923 18.125
7.138 7.642 20.514
7.140 7.705 20.446
7.141 7.768 20.375
7.141 7.830 20.318
7.140 7.893 20.264
7.139 7.958 20.209
7.135 8.022 20.155
7.130 8.083 20.098
7.126 8.148 20.048
7.122 8.212 20.000
7.119 8.275 19.943
7.115 8.337 19.883
7.113 8.399 19.814
7.110 8.462 19.731
7.109 8.523 19.646
15.668 7.860 18.176
15.669 7.797 18.228
15.668 7.733 18.268
15.668 7.670 18.311
15.668 7.608 18.360
15.671 7.545 18.404
15.671 7.481 18.450
15.676 7.420 18.512
15.680 7.357 18.573
15.684 7.293 18.638
15.688 7.231 18.704
15.690 7.170 18.788
13.970 7.975 19.235
13.972 7.911 19.283
13.974 7.848 19.339
13.965 8.875 18.915
15.356 14.716 14.081
15.352 14.649 14.021
15.346 14.580 13.960
15.335 14.375 13.769
15.330 14.308 13.718
15.326 14.240 13.671
15.323 14.171 13.625
15.322 14.105 13.576
15.319 14.038 13.533
15.316 13.970 13.486
15.313 13.903 13.437
15.311 13.836 13.392
15.308 13.770 13.356
15.307 13.705 13.321
7.030 10.325 15.480
7.028 10.385 15.408
7.028 10.446 15.345
7.029 10.507 15.285
7.028 10.568 15.228
7.026 10.630 15.183
7.027 10.692 15.142
7.026 10.753 15.093
7.025 10.815 15.040
7.023 10.877 14.996
7.022 10.940 14.958
7.023 11.000 14.914
7.023 11.063 14.875
7.020 11.125 14.839
7.018 11.188 14.809
7.017 11.250 14.774
7.018 11.310 14.740
7.019 11.373 14.712
7.020 11.437 14.685
7.018 11.498 14.658
7.017 11.560 14.628
7.018 11.622 14.599
7.018 11.685 14.573
7.019 11.748 14.559
7.018 11.810 14.535
7.018 11.873 14.502
7.019 11.937 14.479
7.019 11.998 14.458
7.020 12.062 14.438
7.018 12.125 14.417
7.018 12.186 14.397
7.019 12.250 14.388
7.020 12.315 14.383
7.018 12.378 14.374
7.018 12.443 14.370
7.018 12.507 14.370
7.019 12.570 14.374
7.019 12.635 14.376
7.018 12.700 14.388
7.018 12.763 14.401
7.018 12.830 14.415
7.018 12.895 14.429
7.020 12.962 14.462
7.024 13.028 14.494
7.025 13.095 14.537
7.023 13.162 14.572
7.023 13.226 14.593
7.023 13.292 14.625
7.025 13.358 14.658
7.026 13.425 14.698
7.029 13.494 14.743
7.032 13.561 14.806
7.035 13.630 14.872
7.037 13.698 14.931
7.036 13.767 14.993
7.038 13.833 15.055
7.043 13.903 15.122
7.046 13.973 15.191
7.047 14.043 15.265
7.051 14.112 15.336
7.059 14.183 15.413
7.063 14.253 15.489
7.065 14.323 15.575
7.066 14.393 15.663
7.071 14.465 15.758
7.073 14.535 15.843
7.072 14.605 15.919
7.069 14.677 16.001
7.071 14.748 16.088
7.075 14.820 16.186
7.081 14.892 16.289
7.086 14.963 16.390
7.087 15.035 16.494
15.306 13.638 13.287
15.306 13.572 13.250
15.305 13.505 13.218
15.304 13.440 13.191
15.302 13.375 13.161
15.298 13.308 13.121
15.297 13.243 13.098
15.297 13.177 13.075
7.229 7.450 20.636
7.226 7.513 20.557
7.225 7.575 20.494
7.226 7.638 20.436
7.228 7.702 20.368
7.228 7.765 20.289
7.227 7.827 20.228
7.225 7.890 20.173
7.225 7.954 20.117
7.220 8.018 20.067
7.217 8.080 20.015
7.212 8.143 19.961
7.208 8.208 19.913
7.204 8.271 19.868
7.201 8.335 19.823
7.198 8.397 19.762
7.196 8.460 19.687
7.196 8.521 19.605
15.293 13.112 13.043
15.293 13.046 13.017
15.294 12.981 12.987
15.293 12.917 12.972
15.292 12.851 12.954
15.290 12.787 12.936
15.290 12.721 12.917
15.290 12.657 12.902
15.288 12.593 12.892
15.288 12.529 12.889
15.290 12.463 12.880
15.289 12.400 12.868
15.290 12.335 12.862
15.292 12.272 12.858
15.292 12.208 12.856
15.291 12.145 12.852
15.291 12.080 12.850
15.291 12.018 12.850
15.293 11.954 12.853
15.293 11.890 12.854
15.293 11.828 12.863
15.292 11.763 12.881
15.292 11.702 12.898
15.292 11.640 12.912
15.293 11.577 12.935
15.293 11.515 12.951
15.294 11.451 12.967
15.294 11.390 12.994
15.293 11.329 13.016
7.118 10.261 15.480
7.115 10.320 15.401
7.113 10.380 15.331
7.113 10.442 15.275
7.113 10.504 15.223
7.115 10.563 15.165
7.116 10.626 15.118
7.115 10.689 15.077
7.114 10.750 15.037
7.114 10.812 14.988
7.111 10.873 14.940
7.112 10.937 14.902
7.113 10.998 14.861
7.112 11.060 14.828
7.110 11.123 14.792
7.110 11.185 14.763
7.109 11.247 14.729
7.109 11.308 14.698
7.110 11.370 14.668
7.112 11.434 14.635
7.111 11.495 14.603
7.108 11.557 14.577
7.109 11.618 14.549
7.109 11.682 14.523
7.110 11.745 14.510
7.108 11.808 14.483
7.109 11.870 14.450
7.109 11.933 14.422
7.110 11.995 14.400
7.109 12.058 14.383
7.108 12.122 14.360
7.108 12.183 14.338
7.108 12.247 14.323
7.109 12.310 14.315
7.108 12.373 14.307
7.107 12.438 14.296
7.107 12.502 14.297
7.107 12.565 14.309
7.107 12.630 14.313
7.108 12.696 14.325
7.108 12.760 14.338
7.109 12.825 14.347
7.109 12.890 14.355
7.110 12.957 14.385
7.112 13.023 14.414
7.113 13.089 14.451
7.113 13.155 14.486
7.114 13.220 14.517
7.115 13.287 14.549
7.115 13.353 14.583
7.115 13.420 14.616
7.117 13.488 14.659
7.121 13.555 14.717
7.126 13.624 14.783
7.131 13.692 14.845
7.130 13.760 14.908
7.130 13.828 14.970
7.131 13.897 15.033
7.133 13.967 15.103
7.136 14.037 15.176
7.139 14.106 15.254
7.146 14.177 15.337
7.150 14.247 15.413
7.153 14.317 15.497
7.155 14.388 15.586
7.160 14.459 15.678
7.162 14.530 15.766
7.160 14.600 15.849
7.158 14.672 15.932
7.160 14.743 16.016
7.163 14.815 16.114
7.168 14.887 16.221
7.172 14.958 16.324
7.177 15.030 16.428
15.293 11.266 13.039
15.295 11.205 13.069
15.297 11.143 13.103
15.300 11.080 13.136
15.301 11.018 13.178
15.301 10.958 13.226
15.300 10.898 13.271
15.300 10.836 13.313
7.320 7.383 20.632
7.318 7.447 20.564
7.315 7.510 20.486
7.314 7.573 20.424
7.315 7.635 20.364
7.315 7.699 20.293
7.314 7.761 20.215
7.313 7.823 20.151
7.311 7.886 20.093
7.311 7.950 20.036
7.306 8.013 19.984
7.302 8.077 19.937
7.297 8.140 19.885
7.295 8.205 19.838
7.293 8.268 19.805
7.292 8.332 19.775
7.289 8.395 19.720
7.287 8.458 19.653
7.285 8.520 19.572
7.288 8.580 19.470
15.303 10.775 13.364
15.306 10.715 13.423
15.307 10.655 13.493
15.307 10.595 13.566
15.305 10.535 13.638
15.307 10.476 13.718
15.523 9.186 17.322
15.522 9.122 17.327
15.522 9.057 17.327
15.520 8.990 17.323
15.520 8.925 17.323
15.519 8.861 17.332
15.518 8.797 17.352
15.518 8.733 17.372
15.519 8.670 17.413
15.520 8.608 17.453
15.523 8.545 17.503
15.579 8.055 18.111
15.582 7.992 18.164
15.584 7.927 18.212
15.586 7.863 18.258
15.586 7.800 18.299
15.585 7.737 18.336
15.585 7.673 18.378
15.584 7.610 18.423
15.584 7.548 18.468
15.585 7.485 18.517
15.589 7.423 18.577
7.206 10.257 15.407
7.203 10.316 15.329
7.200 10.376 15.259
7.199 10.438 15.204
7.199 10.500 15.160
7.201 10.560 15.110
7.203 10.623 15.061
7.203 10.685 15.015
7.202 10.747 14.983
7.202 10.808 14.938
7.200 10.870 14.892
7.200 10.934 14.857
7.201 10.995 14.816
7.200 11.058 14.779
7.199 11.120 14.742
7.202 11.181 14.714
7.202 11.244 14.688
7.202 11.305 14.657
7.202 11.368 14.623
7.201 11.431 14.591
7.200 11.493 14.558
7.200 11.555 14.533
7.201 11.616 14.506
7.201 11.679 14.478
7.201 11.741 14.460
7.198 11.804 14.428
7.196 11.867 14.394
7.196 11.929 14.364
7.197 11.991 14.338
7.196 12.054 14.319
7.194 12.118 14.293
7.195 12.180 14.278
7.196 12.243 14.260
7.197 12.306 14.248
7.197 12.369 14.243
7.195 12.433 14.229
7.193 12.497 14.228
7.190 12.561 14.236
7.192 12.625 14.239
7.196 12.690 14.248
7.196 12.755 14.260
7.196 12.820 14.273
7.195 12.885 14.283
7.195 12.952 14.313
7.197 13.017 14.338
7.199 13.083 14.368
7.202 13.150 14.403
7.203 13.215 14.438
7.204 13.282 14.471
7.202 13.348 14.505
7.201 13.415 14.538
7.203 13.482 14.586
7.207 13.550 14.638
7.213 13.618 14.702
7.218 13.686 14.763
7.219 13.755 14.823
7.220 13.822 14.883
7.220 13.891 14.947
7.221 13.960 15.017
7.224 14.030 15.088
7.225 14.100 15.164
7.232 14.170 15.248
7.237 14.240 15.326
7.241 14.310 15.405
7.243 14.381 15.498
7.249 14.452 15.588
7.251 14.523 15.680
7.250 14.595 15.777
7.250 14.667 15.864
7.251 14.738 15.949
7.252 14.810 16.046
7.258 14.882 16.156
7.265 14.953 16.262
7.269 15.025 16.367
15.593 7.360 18.638
15.597 7.296 18.698
15.601 7.233 18.761
15.603 7.172 18.839
13.966 8.938 18.880
13.966 9.001 18.845
13.966 9.067 18.798
15.270 14.848 14.118
15.266 14.780 14.058
15.263 14.712 13.998
15.260 14.643 13.936
15.255 14.574 13.873
15.243 14.368 13.677
7.411 7.257 20.716
7.410 7.318 20.637
7.410 7.381 20.564
7.409 7.445 20.501
7.404 7.508 20.426
7.404 7.570 20.368
7.405 7.633 20.305
7.403 7.697 20.233
7.401 7.758 20.153
7.399 7.820 20.087
7.399 7.883 20.032
7.398 7.947 19.975
7.391 8.010 19.922
7.388 8.075 19.875
7.386 8.138 19.832
7.386 8.203 19.795
7.386 8.267 19.766
7.387 8.330 19.744
7.385 8.393 19.695
7.383 8.457 19.636
7.382 8.519 19.557
7.382 8.578 19.446
15.239 14.300 13.627
15.235 14.233 13.581
15.233 14.165 13.533
15.231 14.098 13.483
15.229 14.032 13.441
15.225 13.964 13.396
15.222 13.897 13.350
15.218 13.830 13.305
15.215 13.763 13.264
15.214 13.698 13.226
15.214 13.631 13.192
15.214 13.565 13.152
15.212 13.498 13.118
15.209 13.433 13.092
15.207 13.369 13.066
15.205 13.303 13.037
15.204 13.237 13.014
15.204 13.171 12.984
15.203 13.107 12.958
15.203 13.040 12.939
15.201 12.976 12.915
15.200 12.912 12.894
15.201 12.847 12.877
15.200 12.782 12.854
15.200 12.716 12.839
7.305 10.073 15.581
7.303 10.133 15.498
7.300 10.193 15.415
7.297 10.253 15.341
7.295 10.313 15.266
7.294 10.373 15.202
7.293 10.435 15.149
7.292 10.497 15.109
7.292 10.558 15.060
7.292 10.620 15.011
7.289 10.682 14.964
7.289 10.743 14.932
7.290 10.805 14.889
7.290 10.868 14.851
7.291 10.932 14.820
7.292 10.993 14.780
7.292 11.055 14.743
7.292 11.118 14.708
7.294 11.180 14.681
7.293 11.242 14.658
7.292 11.303 14.627
7.292 11.365 14.590
7.290 11.429 14.556
7.290 11.490 14.522
7.288 11.552 14.491
7.288 11.613 14.462
7.288 11.677 14.432
7.289 11.738 14.406
7.288 11.800 14.372
7.286 11.863 14.337
7.285 11.925 14.303
7.287 11.987 14.275
7.285 12.050 14.258
7.283 12.113 14.233
7.284 12.175 14.220
7.285 12.239 14.201
7.285 12.302 14.184
7.285 12.365 14.178
7.283 12.428 14.168
7.282 12.493 14.167
7.280 12.557 14.173
7.280 12.621 14.175
7.283 12.685 14.181
7.284 12.750 14.189
7.284 12.815 14.202
7.283 12.879 14.214
7.283 12.945 14.243
7.284 13.010 14.268
7.285 13.076 14.297
7.286 13.144 14.336
7.287 13.209 14.372
7.288 13.276 14.403
7.288 13.343 14.434
7.288 13.408 14.470
7.290 13.476 14.521
7.293 13.544 14.568
7.297 13.611 14.627
7.302 13.680 14.683
7.305 13.749 14.745
7.308 13.816 14.803
7.310 13.885 14.868
7.310 13.955 14.940
7.310 14.025 15.015
7.310 14.095 15.088
7.315 14.165 15.168
7.320 14.234 15.242
7.325 14.303 15.317
7.328 14.375 15.409
7.336 14.445 15.497
7.341 14.516 15.586
7.342 14.588 15.687
7.344 14.660 15.785
7.345 14.733 15.881
7.346 14.805 15.978
7.353 14.877 16.084
7.360 14.948 16.188
7.362 15.020 16.296
7.359 15.093 16.395
7.358 15.165 16.495
7.357 15.238 16.591
15.200 12.652 12.829
15.198 12.588 12.818
15.198 12.525 12.812
15.200 12.460 12.810
15.199 12.397 12.806
15.200 12.331 12.801
15.201 12.268 12.790
15.200 12.203 12.785
15.200 12.140 12.783
15.199 12.076 12.787
7.502 7.190 20.746
7.500 7.255 20.670
7.499 7.317 20.591
7.500 7.380 20.515
7.500 7.443 20.446
7.496 7.505 20.370
7.495 7.568 20.310
7.494 7.630 20.248
7.492 7.695 20.181
7.490 7.757 20.104
7.489 7.818 20.038
7.488 7.881 19.986
7.487 7.945 19.930
7.481 8.008 19.874
7.479 8.073 19.824
7.479 8.136 19.792
7.480 8.202 19.770
7.480 8.266 19.744
7.481 8.330 19.722
7.480 8.393 19.680
7.480 8.457 19.627
7.480 8.518 19.550
7.483 8.578 19.442
15.198 12.013 12.797
15.198 11.950 12.806
15.198 11.886 12.810
15.198 11.825 12.821
15.198 11.761 12.841
15.199 11.700 12.863
15.200 11.639 12.889
15.199 11.576 12.915
15.198 11.514 12.937
15.197 11.451 12.956
15.198 11.390 12.987
15.198 11.329 13.018
15.197 11.266 13.042
15.199 11.205 13.077
15.201 11.143 13.117
15.205 11.081 13.150
15.206 11.020 13.196
15.206 10.960 13.247
15.205 10.900 13.293
15.206 10.838 13.335
15.209 10.777 13.389
15.211 10.716 13.452
15.212 10.657 13.525
7.400 9.951 15.698
7.398 10.010 15.604
7.395 10.070 15.519
7.393 10.130 15.436
7.392 10.190 15.354
7.388 10.250 15.283
7.388 10.310 15.218
7.387 10.371 15.159
7.387 10.433 15.105
7.385 10.495 15.063
7.383 10.555 15.015
7.381 10.618 14.970
7.380 10.680 14.928
7.380 10.741 14.894
7.382 10.803 14.849
7.383 10.866 14.812
7.384 10.929 14.786
7.383 10.990 14.750
7.383 11.053 14.709
7.383 11.115 14.669
7.382 11.178 14.638
7.380 11.240 14.610
7.379 11.300 14.580
7.378 11.363 14.547
7.378 11.427 14.514
7.379 11.488 14.486
7.378 11.550 14.450
7.377 11.610 14.416
7.378 11.673 14.380
7.378 11.735 14.347
7.379 11.797 14.312
7.377 11.860 14.275
7.375 11.922 14.238
7.375 11.983 14.208
7.374 12.046 14.188
7.373 12.109 14.163
7.373 12.171 14.149
7.374 12.235 14.131
7.373 12.298 14.112
7.372 12.360 14.102
7.372 12.424 14.098
7.372 12.488 14.100
7.371 12.553 14.106
7.370 12.617 14.106
7.370 12.680 14.111
7.370 12.745 14.117
7.370 12.810 14.131
7.371 12.875 14.147
7.371 12.940 14.169
7.371 13.005 14.198
7.371 13.071 14.229
7.373 13.139 14.268
7.374 13.205 14.308
7.374 13.272 14.340
7.375 13.339 14.378
7.376 13.405 14.415
7.379 13.472 14.458
7.381 13.540 14.497
7.384 13.606 14.549
7.388 13.675 14.605
7.390 13.744 14.676
7.394 13.811 14.738
7.397 13.880 14.800
7.398 13.950 14.867
7.398 14.018 14.938
7.398 14.088 15.005
7.401 14.158 15.091
7.405 14.228 15.169
7.408 14.298 15.242
7.412 14.369 15.334
7.419 14.440 15.425
7.425 14.510 15.510
7.429 14.582 15.605
7.433 14.655 15.709
7.438 14.727 15.811
7.440 14.798 15.907
7.446 14.870 16.012
7.451 14.942 16.112
7.452 15.015 16.219
7.452 15.088 16.332
7.451 15.162 16.443
7.449 15.235 16.544
15.435 9.254 17.363
15.435 9.190 17.368
15.433 9.125 17.372
15.433 9.058 17.369
15.433 8.993 17.369
15.432 8.928 17.373
15.431 8.865 17.388
15.430 8.802 17.414
15.431 8.738 17.443
7.597 7.063 20.855
7.596 7.127 20.778
7.595 7.188 20.704
7.594 7.253 20.633
7.593 7.315 20.557
7.592 7.378 20.483
7.591 7.442 20.410
7.588 7.505 20.338
7.587 7.567 20.271
7.586 7.628 20.206
7.584 7.693 20.149
7.582 7.755 20.083
7.579 7.818 20.021
7.579 7.880 19.970
7.577 7.945 19.913
7.573 8.008 19.860
7.572 8.072 19.811
7.573 8.136 19.781
7.574 8.202 19.761
7.573 8.265 19.735
7.573 8.329 19.709
7.575 8.393 19.671
7.575 8.457 19.620
7.578 8.518 19.544
15.435 8.675 17.485
15.438 8.613 17.533
15.491 8.058 18.203
15.495 7.995 18.252
15.497 7.930 18.293
15.498 7.867 18.334
15.498 7.803 18.377
15.500 7.740 18.413
15.500 7.677 18.452
15.499 7.613 18.493
15.499 7.550 18.542
15.499 7.488 18.592
15.501 7.425 18.647
15.504 7.363 18.707
15.508 7.300 18.769
15.510 7.237 18.835
13.928 9.491 18.186
13.928 9.554 18.137
13.926 9.617 18.078
13.888 9.905 17.393
7.498 9.712 16.043
7.495 9.770 15.946
7.493 9.830 15.844
7.491 9.890 15.745
7.489 9.949 15.652
7.485 10.008 15.561
7.483 10.068 15.475
7.483 10.128 15.392
7.482 10.188 15.316
7.480 10.248 15.250
7.479 10.309 15.191
7.478 10.370 15.133
7.477 10.430 15.081
7.475 10.492 15.031
7.474 10.553 14.984
7.474 10.615 14.940
7.472 10.678 14.899
7.471 10.740 14.861
7.471 10.802 14.818
7.473 10.865 14.778
7.474 10.927 14.751
7.474 10.988 14.715
7.473 11.051 14.674
7.472 11.114 14.636
7.470 11.175 14.601
7.468 11.237 14.568
7.465 11.298 14.539
7.465 11.360 14.506
7.466 11.423 14.471
7.468 11.485 14.443
7.467 11.547 14.406
7.466 11.608 14.370
7.467 11.670 14.332
7.467 11.731 14.296
7.467 11.793 14.259
7.466 11.855 14.218
7.465 11.918 14.178
7.464 11.978 14.148
7.463 12.042 14.125
7.462 12.105 14.100
7.461 12.167 14.081
7.461 12.230 14.060
7.460 12.293 14.043
7.459 12.356 14.034
7.458 12.420 14.032
7.458 12.484 14.031
7.458 12.548 14.033
7.457 12.612 14.034
7.456 12.675 14.046
7.457 12.740 14.055
7.459 12.805 14.061
7.462 12.870 14.076
7.462 12.935 14.099
7.462 13.000 14.136
7.462 13.067 14.172
7.463 13.135 14.204
7.463 13.200 14.243
7.464 13.268 14.277
7.463 13.335 14.315
7.464 13.400 14.351
7.468 13.468 14.389
7.470 13.535 14.425
7.473 13.601 14.471
7.477 13.670 14.532
7.477 13.740 14.606
7.482 13.807 14.669
7.485 13.875 14.725
7.486 13.945 14.789
7.486 14.013 14.860
7.487 14.083 14.929
7.490 14.153 15.019
7.493 14.223 15.102
7.495 14.293 15.178
7.498 14.363 15.264
7.501 14.434 15.356
7.506 14.505 15.444
7.513 14.576 15.534
7.520 14.649 15.638
7.527 14.721 15.742
7.530 14.793 15.835
7.534 14.865 15.939
7.538 14.936 16.039
7.543 15.010 16.153
7.546 15.084 16.276
7.545 15.158 16.386
7.543 15.230 16.485
7.545 15.302 16.579
13.886 9.965 17.307
15.179 14.842 14.035
15.173 14.773 13.974
15.170 14.705 13.914
15.167 14.637 13.850
7.698 6.877 21.123
7.695 6.938 21.010
7.692 7.000 20.905
7.691 7.062 20.812
7.690 7.125 20.736
7.690 7.188 20.672
7.689 7.252 20.598
7.688 7.313 20.524
7.685 7.377 20.454
7.682 7.440 20.387
7.679 7.503 20.316
7.678 7.565 20.244
7.678 7.628 20.179
7.677 7.692 20.128
7.675 7.755 20.070
7.671 7.818 20.013
7.668 7.880 19.960
7.666 7.945 19.903
7.665 8.008 19.855
7.665 8.072 19.813
7.665 8.135 19.786
7.668 8.201 19.760
7.668 8.265 19.735
7.668 8.328 19.705
7.669 8.393 19.663
7.672 8.457 19.614
7.678 8.518 19.536
15.163 14.568 13.793
15.160 14.500 13.725
15.155 14.431 13.656
15.151 14.363 13.592
15.147 14.295 13.540
15.145 14.228 13.495
15.142 14.160 13.447
15.140 14.094 13.402
15.137 14.026 13.358
15.133 13.959 13.309
15.130 13.893 13.267
15.128 13.826 13.227
15.125 13.758 13.186
15.124 13.692 13.148
15.123 13.625 13.108
15.120 13.558 13.062
15.118 13.493 13.028
15.114 13.428 12.999
15.114 13.363 12.977
15.114 13.298 12.958
7.587 9.708 15.982
7.585 9.766 15.887
7.582 9.825 15.786
7.580 9.885 15.693
7.578 9.945 15.604
7.574 10.005 15.518
7.572 10.065 15.438
7.572 10.125 15.357
7.571 10.185 15.281
7.570 10.245 15.217
7.568 10.307 15.157
7.566 10.368 15.098
7.565 10.428 15.043
7.563 10.490 14.994
7.563 10.552 14.953
7.563 10.615 14.912
7.562 10.677 14.873
7.562 10.738 14.835
7.562 10.800 14.793
7.562 10.863 14.751
7.563 10.925 14.723
7.563 10.987 14.683
7.561 11.050 14.642
7.562 11.112 14.604
7.560 11.173 14.570
7.558 11.235 14.540
7.557 11.296 14.509
7.556 11.359 14.474
7.556 11.422 14.439
7.558 11.483 14.409
7.558 11.545 14.373
7.557 11.607 14.339
7.556 11.668 14.295
7.554 11.728 14.253
7.553 11.790 14.210
7.554 11.853 14.168
7.553 11.915 14.127
7.552 11.975 14.093
7.549 12.038 14.067
7.549 12.100 14.040
7.549 12.163 14.015
7.550 12.226 13.990
7.550 12.289 13.980
7.549 12.352 13.969
7.547 12.415 13.962
7.546 12.480 13.957
7.545 12.543 13.956
7.546 12.607 13.958
7.548 12.671 13.974
7.549 12.735 13.983
7.552 12.800 13.987
7.554 12.865 14.005
7.552 12.930 14.024
7.551 12.996 14.063
7.553 13.063 14.103
7.554 13.130 14.134
7.555 13.195 14.176
7.556 13.263 14.215
7.554 13.330 14.247
7.555 13.395 14.278
7.559 13.463 14.323
7.560 13.530 14.362
7.564 13.596 14.407
7.567 13.665 14.468
7.568 13.734 14.537
7.570 13.801 14.593
7.571 13.870 14.648
7.573 13.940 14.714
7.577 14.008 14.786
7.579 14.078 14.858
7.582 14.147 14.945
7.584 14.218 15.027
7.585 14.288 15.103
7.587 14.357 15.186
7.588 14.428 15.278
7.593 14.499 15.369
7.600 14.570 15.460
7.606 14.643 15.556
7.613 14.715 15.662
7.618 14.788 15.760
7.621 14.860 15.868
7.626 14.931 15.974
7.633 15.005 16.093
7.637 15.079 16.215
7.637 15.153 16.329
7.636 15.225 16.434
7.638 15.298 16.529
15.113 13.232 12.936
15.112 13.166 12.904
15.111 13.101 12.877
15.112 13.035 12.859
15.108 12.972 12.842
7.791 6.875 21.077
7.788 6.936 20.976
7.785 6.998 20.879
7.784 7.061 20.790
7.783 7.123 20.712
7.785 7.187 20.651
7.783 7.250 20.576
7.780 7.313 20.506
7.778 7.376 20.439
7.774 7.440 20.376
7.773 7.503 20.307
7.772 7.565 20.238
7.770 7.628 20.177
7.768 7.692 20.123
7.764 7.755 20.070
7.758 7.818 20.019
7.755 7.880 19.967
7.754 7.945 19.913
7.757 8.008 19.864
7.757 8.072 19.826
7.758 8.136 19.798
7.761 8.202 19.767
7.762 8.265 19.742
7.763 8.329 19.710
7.764 8.393 19.664
7.770 8.457 19.612
15.108 12.907 12.818
15.109 12.841 12.803
15.109 12.777 12.783
15.110 12.712 12.770
15.110 12.648 12.763
15.109 12.583 12.758
15.109 12.520 12.753
15.109 12.456 12.751
15.108 12.392 12.746
15.107 12.328 12.743
15.108 12.265 12.736
15.108 12.200 12.734
15.108 12.137 12.737
15.107 12.073 12.750
15.106 12.012 12.766
15.106 11.949 12.784
15.107 11.886 12.798
15.106 11.824 12.808
15.104 11.761 12.826
7.678 9.586 16.144
7.679 9.645 16.038
7.677 9.705 15.938
7.673 9.763 15.840
7.669 9.823 15.738
7.667 9.883 15.647
7.665 9.943 15.560
7.662 10.003 15.476
7.661 10.063 15.400
7.661 10.123 15.322
7.661 10.184 15.247
7.660 10.243 15.187
7.658 10.305 15.130
7.657 10.366 15.076
7.655 10.428 15.021
7.652 10.490 14.970
7.651 10.551 14.926
7.652 10.613 14.884
7.650 10.675 14.843
7.650 10.736 14.806
7.652 10.798 14.772
7.651 10.862 14.739
7.652 10.925 14.713
7.652 10.986 14.671
7.650 11.048 14.631
7.650 11.110 14.594
7.649 11.172 14.562
7.648 11.234 14.528
7.648 11.295 14.492
7.647 11.358 14.452
7.646 11.420 14.415
7.647 11.481 14.380
7.648 11.542 14.338
7.648 11.603 14.296
7.647 11.665 14.252
7.645 11.725 14.208
7.643 11.788 14.160
7.641 11.850 14.118
7.642 11.912 14.081
7.642 11.973 14.046
7.640 12.035 14.014
7.639 12.097 13.985
7.638 12.158 13.960
7.638 12.222 13.934
7.637 12.285 13.919
7.636 12.348 13.901
7.635 12.411 13.891
7.635 12.475 13.885
7.635 12.538 13.884
7.635 12.603 13.888
7.638 12.667 13.905
7.639 12.731 13.915
7.640 12.795 13.925
7.642 12.860 13.946
7.641 12.926 13.966
7.641 12.992 14.001
7.642 13.058 14.034
7.643 13.125 14.064
7.643 13.191 14.108
7.644 13.259 14.149
7.644 13.325 14.180
7.647 13.390 14.209
7.649 13.458 14.258
7.648 13.525 14.302
7.651 13.592 14.352
7.655 13.661 14.411
7.657 13.729 14.475
7.659 13.796 14.524
7.658 13.865 14.582
7.660 13.935 14.648
7.664 14.003 14.717
7.668 14.072 14.791
7.671 14.141 14.868
7.673 14.212 14.946
7.675 14.282 15.018
7.676 14.351 15.100
7.678 14.422 15.190
7.684 14.493 15.284
7.690 14.565 15.382
7.695 14.637 15.478
7.702 14.710 15.589
7.707 14.783 15.696
7.711 14.855 15.796
7.715 14.926 15.901
7.721 14.999 16.022
7.726 15.073 16.143
7.728 15.148 16.265
7.728 15.222 16.381
7.730 15.295 16.483
15.103 11.700 12.850
15.103 11.638 12.883
15.101 11.576 12.908
15.100 11.515 12.936
15.100 11.451 12.966
15.104 11.390 13.003
15.107 11.330 13.046
15.106 11.268 13.075
7.884 6.810 21.137
7.881 6.874 21.052
7.879 6.935 20.958
7.878 6.998 20.868
7.877 7.062 20.792
7.876 7.124 20.713
7.876 7.186 20.636
7.873 7.250 20.564
7.872 7.313 20.498
7.868 7.375 20.428
7.864 7.440 20.364
7.863 7.503 20.299
7.864 7.565 20.241
7.860 7.628 20.183
7.857 7.692 20.125
7.853 7.755 20.073
7.846 7.818 20.027
7.841 7.881 19.976
7.841 7.945 19.920
7.845 8.008 19.874
7.848 8.073 19.837
7.850 8.136 19.807
7.853 8.202 19.777
7.854 8.266 19.752
7.857 8.330 19.718
7.862 8.393 19.670
15.106 11.207 13.111
15.108 11.145 13.155
15.112 11.083 13.188
15.115 11.023 13.237
15.116 10.963 13.290
15.118 10.902 13.337
15.120 10.841 13.382
15.122 10.780 13.439
15.350 9.257 17.427
15.349 9.193 17.425
15.348 9.128 17.426
15.347 9.062 17.427
15.347 8.997 17.437
15.345 8.933 17.452
15.345 8.870 17.473
15.345 8.807 17.504
15.347 8.743 17.535
15.401 8.125 18.255
7.775 9.467 16.312
7.774 9.525 16.203
7.770 9.583 16.098
7.768 9.644 16.001
7.765 9.703 15.900
7.761 9.761 15.800
7.758 9.820 15.699
7.756 9.880 15.606
7.753 9.940 15.519
7.751 10.000 15.435
7.751 10.060 15.359
7.752 10.122 15.287
7.751 10.183 15.221
7.748 10.243 15.168
7.748 10.305 15.113
7.748 10.365 15.058
7.747 10.427 15.006
7.745 10.490 14.956
7.743 10.550 14.908
7.741 10.613 14.870
7.739 10.675 14.833
7.739 10.735 14.797
7.740 10.798 14.765
7.740 10.862 14.736
7.742 10.925 14.705
7.740 10.985 14.657
7.740 11.048 14.621
7.740 11.110 14.587
7.738 11.171 14.551
7.738 11.233 14.510
7.738 11.293 14.468
7.738 11.356 14.426
7.736 11.419 14.390
7.736 11.480 14.355
7.737 11.540 14.305
7.737 11.601 14.254
7.737 11.662 14.206
7.735 11.723 14.159
7.732 11.785 14.111
7.730 11.846 14.070
7.728 11.908 14.030
7.728 11.970 13.993
7.728 12.032 13.963
7.728 12.094 13.933
7.727 12.155 13.905
7.725 12.218 13.878
7.723 12.282 13.860
7.723 12.343 13.839
7.723 12.407 13.829
7.723 12.470 13.823
7.723 12.533 13.822
7.723 12.598 13.829
7.724 12.663 13.848
7.725 12.727 13.861
7.726 12.793 13.876
7.728 12.857 13.891
7.728 12.922 13.907
7.728 12.988 13.937
7.728 13.054 13.971
7.731 13.120 14.000
7.733 13.186 14.040
7.733 13.253 14.078
7.733 13.320 14.113
7.735 13.386 14.148
7.738 13.453 14.193
7.738 13.520 14.235
7.739 13.588 14.288
7.742 13.657 14.350
7.745 13.725 14.407
7.748 13.792 14.457
7.747 13.860 14.515
7.748 13.930 14.580
7.751 13.998 14.646
7.754 14.067 14.713
7.756 14.135 14.784
7.760 14.205 14.866
7.764 14.275 14.942
7.767 14.345 15.028
7.770 14.417 15.118
7.774 14.488 15.216
7.778 14.560 15.317
7.784 14.631 15.407
7.788 14.703 15.518
7.794 14.777 15.633
7.798 14.850 15.729
7.803 14.920 15.828
7.809 14.993 15.943
7.813 15.067 16.062
7.817 15.143 16.194
7.818 15.217 16.321
7.821 15.290 16.431
7.823 15.363 16.538
15.402 8.063 18.303
15.406 7.999 18.345
15.406 7.933 18.383
15.408 7.870 18.418
7.977 6.625 21.472
7.974 6.686 21.343
7.976 6.748 21.225
7.976 6.810 21.127
7.973 6.874 21.052
7.971 6.935 20.961
7.970 6.998 20.875
7.970 7.062 20.802
7.970 7.125 20.724
7.969 7.186 20.640
7.967 7.250 20.567
7.963 7.313 20.496
7.960 7.375 20.423
7.957 7.440 20.360
7.954 7.503 20.298
7.954 7.565 20.243
7.951 7.628 20.190
7.947 7.692 20.137
7.942 7.756 20.086
7.936 7.819 20.043
7.934 7.883 19.996
7.935 7.947 19.943
7.938 8.010 19.903
7.943 8.074 19.872
7.945 8.138 19.841
7.946 8.203 19.811
7.948 8.267 19.780
7.953 8.330 19.736
7.963 8.393 19.682
15.410 7.807 18.457
15.411 7.743 18.487
15.411 7.680 18.523
15.412 7.616 18.565
15.412 7.553 18.615
15.411 7.490 18.667
15.413 7.428 18.721
15.415 7.365 18.786
15.419 7.303 18.853
15.420 7.240 18.922
13.885 10.028 17.231
13.883 10.089 17.169
13.881 10.150 17.123
13.877 10.212 17.070
13.873 10.274 17.012
13.870 10.335 16.950
7.867 9.347 16.493
7.866 9.406 16.383
7.865 9.465 16.276
7.865 9.523 16.168
7.861 9.582 16.063
7.859 9.643 15.968
7.856 9.702 15.871
7.852 9.760 15.769
7.850 9.820 15.670
7.848 9.879 15.575
7.846 9.938 15.491
7.844 9.999 15.408
7.843 10.058 15.329
7.843 10.120 15.259
7.842 10.182 15.195
7.840 10.243 15.149
7.839 10.304 15.100
7.839 10.365 15.047
7.839 10.426 14.998
7.837 10.489 14.953
7.835 10.550 14.910
7.833 10.613 14.874
7.833 10.675 14.837
7.832 10.735 14.796
7.832 10.798 14.758
7.831 10.861 14.725
7.832 10.924 14.693
7.829 10.985 14.650
7.829 11.048 14.610
7.829 11.110 14.577
7.828 11.170 14.542
7.828 11.232 14.501
7.829 11.293 14.459
7.830 11.355 14.416
7.829 11.418 14.374
7.826 11.478 14.331
7.825 11.539 14.280
7.824 11.600 14.226
7.824 11.660 14.173
7.822 11.720 14.122
7.820 11.783 14.078
7.818 11.845 14.038
7.818 11.906 13.995
7.818 11.966 13.953
7.817 12.028 13.921
7.815 12.090 13.885
7.813 12.152 13.851
7.810 12.215 13.819
7.808 12.278 13.802
7.810 12.340 13.787
7.811 12.403 13.779
7.812 12.467 13.772
7.810 12.530 13.768
7.810 12.595 13.775
7.809 12.659 13.793
7.810 12.723 13.804
7.813 12.789 13.821
7.816 12.853 13.837
7.815 12.918 13.853
7.814 12.984 13.884
7.815 13.050 13.918
7.818 13.116 13.943
7.819 13.182 13.980
7.821 13.250 14.018
7.822 13.317 14.056
7.824 13.383 14.086
7.826 13.450 14.127
7.825 13.517 14.169
7.826 13.583 14.220
7.828 13.652 14.278
7.831 13.720 14.332
7.836 13.787 14.390
7.836 13.855 14.447
7.838 13.925 14.509
7.839 13.993 14.578
7.839 14.062 14.646
7.842 14.130 14.714
7.847 14.200 14.790
7.851 14.270 14.868
7.855 14.340 14.955
7.859 14.411 15.043
7.863 14.482 15.142
7.868 14.554 15.243
7.873 14.625 15.333
7.876 14.698 15.440
7.882 14.772 15.558
7.885 14.845 15.665
7.890 14.915 15.768
7.895 14.988 15.878
7.898 15.061 15.987
7.904 15.137 16.122
7.907 15.212 16.255
7.910 15.285 16.370
7.911 15.359 16.485
15.088 14.836 13.956
15.081 14.767 13.892
15.076 14.699 13.829
15.074 14.631 13.765
15.072 14.563 13.714
8.074 6.625 21.463
8.072 6.685 21.336
8.069 6.747 21.221
8.066 6.809 21.121
8.063 6.873 21.041
8.063 6.935 20.958
8.063 6.998 20.882
8.062 7.062 20.808
8.062 7.125 20.728
8.060 7.186 20.648
8.058 7.250 20.578
8.055 7.313 20.513
8.052 7.376 20.442
8.049 7.440 20.378
8.047 7.503 20.313
8.047 7.565 20.254
8.042 7.628 20.200
8.037 7.693 20.149
8.033 7.757 20.104
8.031 7.820 20.063
8.032 7.883 20.023
8.034 7.948 19.983
8.036 8.012 19.949
8.039 8.076 19.921
8.040 8.140 19.887
8.041 8.205 19.855
8.043 8.269 19.820
8.052 8.332 19.767
15.068 14.495 13.653
15.063 14.426 13.588
15.059 14.358 13.521
15.054 14.290 13.463
15.052 14.223 13.417
15.050 14.155 13.368
15.047 14.088 13.320
15.044 14.020 13.274
15.042 13.953 13.225
15.038 13.886 13.182
15.036 13.820 13.144
15.033 13.753 13.107
15.032 13.687 13.072
15.030 13.620 13.033
15.028 13.554 12.992
15.025 13.488 12.964
15.023 13.423 12.936
7.958 9.345 16.457
7.957 9.405 16.353
7.956 9.464 16.246
7.954 9.521 16.139
7.952 9.580 16.036
7.949 9.640 15.932
7.947 9.700 15.838
7.943 9.758 15.741
7.942 9.818 15.645
7.939 9.878 15.550
7.937 9.938 15.472
7.936 9.998 15.390
7.934 10.058 15.315
7.933 10.119 15.243
7.932 10.180 15.173
7.929 10.241 15.128
7.928 10.303 15.076
7.928 10.363 15.029
7.928 10.425 14.985
7.926 10.488 14.943
7.926 10.550 14.909
7.927 10.613 14.876
7.927 10.675 14.841
7.925 10.735 14.802
7.924 10.798 14.764
7.923 10.860 14.724
7.922 10.923 14.684
7.920 10.985 14.645
7.921 11.048 14.602
7.920 11.109 14.561
7.918 11.170 14.525
7.918 11.232 14.488
7.919 11.293 14.448
7.920 11.355 14.410
7.919 11.417 14.366
7.917 11.477 14.312
7.915 11.538 14.256
7.914 11.598 14.200
7.912 11.658 14.144
7.909 11.718 14.086
7.906 11.780 14.039
7.906 11.842 13.999
7.907 11.903 13.957
7.907 11.964 13.916
7.905 12.025 13.879
7.903 12.087 13.838
7.900 12.148 13.799
7.898 12.211 13.767
7.896 12.274 13.750
7.898 12.337 13.732
7.899 12.400 13.723
7.899 12.463 13.721
7.898 12.527 13.717
7.897 12.591 13.723
7.896 12.655 13.739
7.898 12.720 13.751
7.900 12.785 13.766
7.903 12.850 13.781
7.902 12.915 13.801
7.902 12.981 13.828
7.903 13.047 13.858
7.905 13.112 13.885
7.906 13.178 13.927
7.908 13.245 13.965
7.909 13.312 13.999
7.911 13.378 14.031
7.913 13.445 14.071
7.913 13.512 14.108
7.914 13.578 14.151
7.917 13.645 14.196
7.918 13.713 14.250
7.923 13.781 14.314
7.925 13.850 14.375
7.927 13.920 14.439
7.928 13.988 14.510
7.930 14.057 14.586
7.932 14.125 14.655
7.934 14.195 14.724
7.938 14.265 14.798
7.942 14.335 14.883
7.946 14.405 14.969
7.953 14.476 15.062
7.957 14.548 15.153
7.960 14.620 15.254
7.965 14.693 15.365
7.971 14.766 15.481
7.973 14.839 15.592
7.977 14.911 15.701
7.982 14.984 15.816
7.984 15.057 15.923
7.989 15.132 16.051
7.991 15.207 16.187
7.996 15.281 16.306
7.999 15.354 16.425
15.023 13.358 12.909
15.022 13.293 12.887
15.021 13.228 12.866
15.020 13.162 12.841
15.020 13.097 12.810
8.168 6.563 21.577
8.169 6.625 21.456
8.166 6.685 21.332
8.163 6.748 21.225
8.160 6.810 21.132
8.158 6.873 21.048
8.157 6.935 20.966
8.156 6.998 20.893
8.153 7.062 20.814
8.151 7.125 20.737
8.150 7.188 20.663
8.149 7.252 20.596
8.147 7.315 20.535
8.145 7.378 20.464
8.142 7.442 20.403
8.140 7.505 20.342
8.137 7.567 20.282
8.131 7.630 20.228
8.126 7.694 20.177
8.126 7.758 20.136
8.126 7.821 20.095
8.130 7.885 20.063
8.132 7.950 20.033
8.134 8.015 20.005
8.137 8.078 19.976
8.137 8.143 19.938
8.138 8.207 19.902
8.142 8.270 19.861
15.019 13.030 12.785
15.017 12.966 12.770
15.017 12.903 12.750
15.018 12.837 12.738
15.018 12.773 12.724
15.018 12.708 12.712
15.017 12.645 12.705
15.016 12.581 12.701
15.015 12.517 12.694
15.015 12.453 12.693
15.014 12.388 12.690
15.014 12.324 12.692
8.061 8.992 17.163
8.061 9.051 17.039
8.059 9.110 16.918
8.055 9.169 16.793
8.053 9.226 16.669
8.050 9.284 16.545
8.050 9.343 16.432
8.050 9.403 16.326
8.049 9.463 16.219
8.045 9.520 16.113
8.044 9.580 16.013
8.040 9.638 15.900
8.037 9.698 15.803
8.034 9.756 15.708
8.032 9.817 15.619
8.030 9.878 15.529
8.029 9.937 15.453
8.027 9.998 15.375
8.024 10.058 15.306
8.021 10.118 15.236
8.022 10.179 15.171
8.020 10.240 15.127
8.018 10.302 15.073
8.018 10.363 15.024
8.019 10.425 14.982
8.018 10.488 14.942
8.017 10.550 14.908
8.017 10.613 14.875
8.017 10.675 14.836
8.016 10.735 14.798
8.015 10.798 14.763
8.013 10.862 14.729
8.011 10.924 14.689
8.010 10.985 14.648
8.010 11.047 14.603
8.008 11.108 14.556
8.008 11.170 14.519
8.006 11.232 14.479
8.007 11.293 14.434
8.007 11.354 14.395
8.007 11.415 14.348
8.005 11.476 14.292
8.004 11.537 14.235
8.003 11.597 14.182
8.001 11.657 14.123
7.999 11.716 14.055
7.998 11.778 14.006
7.997 11.840 13.958
7.996 11.900 13.915
7.995 11.962 13.876
7.994 12.023 13.835
7.991 12.085 13.788
7.988 12.145 13.742
7.987 12.208 13.712
7.984 12.270 13.694
7.987 12.333 13.676
7.987 12.396 13.664
7.986 12.459 13.664
7.985 12.523 13.664
7.985 12.587 13.665
7.985 12.651 13.672
7.987 12.716 13.688
7.988 12.782 13.708
7.990 12.846 13.725
7.990 12.911 13.744
7.992 12.977 13.768
7.993 13.043 13.800
7.993 13.108 13.832
7.995 13.175 13.873
7.995 13.242 13.910
7.996 13.308 13.943
7.997 13.375 13.983
7.999 13.442 14.024
8.000 13.508 14.053
8.001 13.573 14.091
8.005 13.640 14.127
8.007 13.708 14.183
8.011 13.777 14.247
8.014 13.845 14.307
8.016 13.915 14.368
8.019 13.983 14.441
8.022 14.052 14.520
8.023 14.120 14.588
8.025 14.190 14.658
8.027 14.260 14.731
8.030 14.330 14.812
8.033 14.400 14.898
8.039 14.470 14.985
8.043 14.541 15.071
8.046 14.615 15.182
8.051 14.687 15.293
8.059 14.760 15.410
8.063 14.834 15.527
8.067 14.906 15.639
8.072 14.979 15.752
8.071 15.051 15.857
8.075 15.126 15.986
8.079 15.202 16.126
8.084 15.277 16.251
8.088 15.350 16.372
15.015 12.263 12.696
15.016 12.198 12.704
15.016 12.136 12.708
15.013 12.072 12.718
8.262 6.501 21.677
8.261 6.563 21.563
8.262 6.625 21.459
8.259 6.686 21.344
8.255 6.748 21.244
8.253 6.811 21.155
8.252 6.874 21.074
8.250 6.936 20.990
8.248 6.999 20.913
8.245 7.063 20.834
8.244 7.125 20.758
8.241 7.188 20.684
8.240 7.252 20.613
8.238 7.315 20.552
8.237 7.378 20.488
8.235 7.443 20.433
8.232 7.505 20.378
8.227 7.568 20.318
8.221 7.631 20.265
8.219 7.695 20.212
8.222 7.760 20.171
8.223 7.823 20.134
8.227 7.887 20.107
8.228 7.953 20.082
8.230 8.018 20.060
8.232 8.082 20.037
8.233 8.145 19.998
8.236 8.210 19.958
8.245 8.273 19.904
15.009 12.010 12.736
15.009 11.948 12.761
15.010 11.887 12.787
15.009 11.824 12.806
15.008 11.763 12.835
15.005 11.701 12.868
15.005 11.640 12.909
15.005 11.578 12.939
15.006 11.517 12.975
15.007 11.455 13.012
8.159 8.872 17.375
8.156 8.930 17.248
8.155 8.990 17.128
8.154 9.050 17.018
8.151 9.110 16.903
8.148 9.168 16.775
8.147 9.225 16.657
8.145 9.283 16.537
8.145 9.343 16.422
8.144 9.403 16.312
8.140 9.462 16.205
8.137 9.520 16.101
8.137 9.580 16.005
8.132 9.638 15.897
8.127 9.697 15.794
8.123 9.755 15.695
8.121 9.816 15.607
8.120 9.877 15.520
8.118 9.936 15.441
8.116 9.997 15.367
8.113 10.058 15.298
8.111 10.118 15.233
8.112 10.178 15.172
8.111 10.240 15.134
8.110 10.302 15.085
8.110 10.363 15.033
8.110 10.425 14.988
8.108 10.488 14.945
8.106 10.549 14.905
8.104 10.612 14.871
8.105 10.675 14.832
8.104 10.735 14.793
8.103 10.798 14.757
8.102 10.861 14.724
8.100 10.924 14.690
8.099 10.985 14.651
8.098 11.048 14.608
8.098 11.109 14.561
8.099 11.170 14.521
8.096 11.231 14.471
8.095 11.291 14.420
8.093 11.353 14.377
8.092 11.415 14.331
8.093 11.475 14.276
8.092 11.535 14.214
8.091 11.595 14.155
8.090 11.655 14.092
8.088 11.715 14.024
8.088 11.775 13.972
8.087 11.837 13.919
8.085 11.898 13.870
8.083 11.958 13.825
8.081 12.020 13.783
8.080 12.082 13.738
8.079 12.141 13.691
8.077 12.204 13.661
8.073 12.268 13.641
8.074 12.330 13.628
8.073 12.393 13.613
8.073 12.456 13.606
8.074 12.519 13.609
8.074 12.583 13.611
8.075 12.648 13.618
8.077 12.713 13.631
8.078 12.778 13.648
8.079 12.842 13.669
8.080 12.908 13.689
8.082 12.973 13.713
8.082 13.038 13.746
8.083 13.105 13.782
8.084 13.172 13.819
8.085 13.238 13.847
8.084 13.303 13.879
8.084 13.370 13.929
8.086 13.438 13.972
8.086 13.503 13.996
8.088 13.570 14.034
8.092 13.637 14.073
8.093 13.705 14.130
8.096 13.773 14.190
8.100 13.840 14.246
8.104 13.910 14.306
8.107 13.978 14.375
8.112 14.047 14.443
8.114 14.115 14.508
8.115 14.185 14.576
8.116 14.255 14.651
8.119 14.323 14.735
8.121 14.395 14.823
8.125 14.465 14.912
8.128 14.536 15.002
8.133 14.609 15.108
8.139 14.681 15.218
8.147 14.753 15.334
8.151 14.828 15.451
8.157 14.900 15.567
8.161 14.973 15.684
8.161 15.047 15.800
8.165 15.122 15.932
8.169 15.198 16.065
8.173 15.273 16.191
8.177 15.347 16.314
15.012 11.393 13.042
15.016 11.333 13.083
15.018 11.271 13.123
15.018 11.210 13.162
8.355 6.500 21.675
8.354 6.563 21.563
8.354 6.625 21.460
8.350 6.687 21.354
8.345 6.750 21.265
8.345 6.812 21.183
8.344 6.875 21.107
8.343 6.938 21.028
8.341 7.001 20.948
8.338 7.064 20.867
8.335 7.127 20.791
8.333 7.190 20.720
8.330 7.253 20.643
8.328 7.316 20.578
8.328 7.380 20.516
8.326 7.444 20.462
8.321 7.507 20.408
8.318 7.570 20.352
8.316 7.633 20.308
8.317 7.698 20.265
8.320 7.762 20.226
8.320 7.825 20.185
8.322 7.889 20.157
8.323 7.955 20.137
8.325 8.020 20.111
8.325 8.083 20.091
8.326 8.148 20.056
8.333 8.212 20.012
15.019 11.148 13.206
15.022 11.086 13.239
15.026 11.025 13.291
15.030 10.965 13.351
15.034 10.906 13.408
15.262 9.324 17.485
15.262 9.260 17.489
15.261 9.195 17.484
15.260 9.130 17.485
15.260 9.065 17.492
8.253 8.811 17.468
8.252 8.870 17.345
8.250 8.928 17.222
8.248 8.990 17.109
8.247 9.050 17.007
8.244 9.110 16.897
8.242 9.168 16.767
8.240 9.225 16.649
8.239 9.283 16.535
8.238 9.343 16.422
8.236 9.402 16.313
8.232 9.462 16.209
8.230 9.520 16.108
8.229 9.580 16.010
8.225 9.639 15.911
8.221 9.698 15.802
8.216 9.755 15.703
8.215 9.815 15.618
8.213 9.875 15.527
8.210 9.935 15.443
8.208 9.996 15.370
8.205 10.058 15.303
8.203 10.119 15.241
8.204 10.178 15.183
8.204 10.240 15.140
8.202 10.302 15.089
8.200 10.363 15.039
8.200 10.427 15.006
8.198 10.489 14.964
8.198 10.550 14.923
8.197 10.613 14.885
8.197 10.675 14.847
8.196 10.736 14.805
8.195 10.798 14.761
8.192 10.861 14.723
8.189 10.924 14.691
8.188 10.985 14.653
8.188 11.048 14.610
8.189 11.110 14.564
8.190 11.170 14.522
8.189 11.232 14.473
8.188 11.291 14.420
8.185 11.353 14.372
8.183 11.414 14.321
8.183 11.473 14.262
8.181 11.533 14.195
8.180 11.593 14.129
8.179 11.653 14.065
8.177 11.713 14.001
8.177 11.773 13.944
8.177 11.835 13.896
8.173 11.897 13.845
8.171 11.956 13.790
8.170 12.018 13.744
8.168 12.079 13.697
8.166 12.138 13.649
8.165 12.201 13.615
8.163 12.264 13.596
8.162 12.328 13.585
8.160 12.390 13.567
8.160 12.453 13.554
8.161 12.516 13.554
8.161 12.580 13.557
8.162 12.645 13.567
8.163 12.709 13.579
8.164 12.773 13.590
8.166 12.838 13.613
8.167 12.904 13.638
8.168 12.970 13.665
8.170 13.035 13.697
8.172 13.102 13.734
8.173 13.168 13.766
8.173 13.233 13.796
8.173 13.300 13.832
8.174 13.367 13.876
8.176 13.434 13.913
8.174 13.500 13.938
8.176 13.565 13.976
8.179 13.633 14.015
8.181 13.700 14.067
8.184 13.768 14.122
8.188 13.836 14.180
8.191 13.905 14.243
8.195 13.973 14.311
8.199 14.042 14.376
8.200 14.110 14.439
8.202 14.180 14.503
8.203 14.250 14.578
8.206 14.318 14.665
8.210 14.390 14.754
8.213 14.460 14.842
8.216 14.530 14.934
8.220 14.603 15.033
8.226 14.675 15.143
8.233 14.748 15.264
8.238 14.822 15.380
8.245 14.895 15.497
8.250 14.968 15.619
8.252 15.042 15.741
8.255 15.116 15.870
8.258 15.192 16.008
8.264 15.267 16.139
8.265 15.342 16.258
15.258 9.000 17.506
15.258 8.937 17.529
15.258 8.873 17.554
8.447 6.438 21.796
8.445 6.502 21.683
8.445 6.563 21.569
