VERSION 0.7
FIELDS x y z
SIZE 4 4 4
TYPE F F F
COUNT 1 1 1
WIDTH 2405
HEIGHT 1
VIEWPOINT 0 0 0 1 0 0 0
POINTS 2405
DATA ascii
8.445 8.755 17.663
8.445 8.818 17.624
8.447 8.882 17.580
8.446 8.945 17.544
8.445 9.010 17.506
8.445 9.073 17.476
8.442 9.135 17.429
8.439 9.198 17.381
8.438 9.260 17.343
8.437 9.323 17.304
8.435 9.385 17.262
8.433 9.448 17.225
8.431 9.512 17.182
8.429 9.573 17.139
8.427 9.635 17.097
8.425 9.698 17.040
8.422 9.760 16.984
8.420 9.820 16.928
8.418 9.882 16.869
8.416 9.943 16.802
8.415 10.005 16.736
8.414 10.066 16.667
8.412 10.127 16.590
8.413 10.188 16.520
8.412 10.248 16.437
8.413 10.308 16.361
8.413 10.368 16.297
8.410 10.430 16.226
8.408 10.490 16.150
8.408 10.552 16.086
8.408 10.613 16.036
8.408 10.675 15.991
8.408 10.738 15.947
8.407 10.798 15.897
8.406 10.860 15.849
8.405 10.923 15.813
8.405 10.985 15.774
8.406 11.048 15.744
8.405 11.111 15.709
8.405 11.174 15.671
8.404 11.236 15.643
8.404 11.299 15.623
8.402 11.361 15.597
8.398 11.425 15.574
8.394 11.489 15.563
8.392 11.551 15.555
8.391 11.616 15.561
8.390 11.680 15.562
8.390 11.745 15.558
8.390 11.808 15.560
8.390 11.873 15.567
8.391 11.939 15.584
8.391 12.005 15.603
8.393 12.070 15.633
8.397 12.138 15.661
8.400 12.205 15.699
8.402 12.272 15.740
8.405 12.338 15.779
8.407 12.405 15.818
8.409 12.472 15.856
8.406 12.538 15.890
8.403 12.605 15.932
8.403 12.673 15.979
8.404 12.742 16.025
8.406 12.810 16.076
8.413 12.876 16.133
8.421 12.945 16.193
8.426 13.015 16.268
8.427 13.085 16.355
8.424 13.155 16.438
8.426 13.226 16.525
8.433 13.300 16.633
8.439 13.372 16.743
8.445 13.443 16.858
17.351 7.841 17.770
17.356 7.780 17.854
17.362 7.720 17.948
17.368 7.658 18.042
17.373 7.598 18.137
17.163 12.718 15.798
17.163 12.653 15.793
17.163 12.588 15.783
17.162 12.522 15.770
17.161 12.456 15.758
17.159 12.391 15.739
17.159 12.327 15.731
17.159 12.262 15.726
17.156 12.197 15.714
17.154 12.131 15.703
17.153 12.067 15.691
17.153 12.002 15.680
8.548 8.205 18.407
8.549 8.265 18.285
8.549 8.325 18.168
8.546 8.385 18.074
8.544 8.446 17.986
8.541 8.508 17.902
8.541 8.570 17.833
8.539 8.630 17.765
8.538 8.692 17.709
8.538 8.755 17.665
8.538 8.818 17.622
8.539 8.881 17.573
8.538 8.945 17.543
8.537 9.009 17.511
8.537 9.072 17.478
8.534 9.135 17.431
8.530 9.197 17.384
8.528 9.260 17.347
8.528 9.322 17.311
8.525 9.385 17.270
8.523 9.448 17.233
8.522 9.510 17.190
8.521 9.573 17.145
8.518 9.635 17.101
8.517 9.698 17.045
8.514 9.760 16.993
8.511 9.820 16.940
8.510 9.883 16.888
8.507 9.944 16.827
8.503 10.006 16.758
8.501 10.067 16.684
8.499 10.128 16.604
8.500 10.189 16.537
8.499 10.250 16.457
8.498 10.308 16.383
8.500 10.370 16.321
8.500 10.432 16.260
8.499 10.493 16.190
8.499 10.553 16.129
8.499 10.615 16.081
8.497 10.678 16.031
8.495 10.740 15.982
8.492 10.800 15.924
8.493 10.861 15.870
8.494 10.924 15.831
8.493 10.987 15.795
8.493 11.050 15.763
8.492 11.112 15.722
8.492 11.175 15.678
8.492 11.235 15.645
8.494 11.298 15.614
8.494 11.360 15.579
8.490 11.423 15.549
8.485 11.487 15.528
8.481 11.548 15.513
8.480 11.613 15.517
8.480 11.678 15.518
8.480 11.742 15.513
8.480 11.805 15.512
8.480 11.870 15.513
8.482 11.935 15.524
8.482 12.000 15.538
8.481 12.066 15.558
8.483 12.133 15.581
8.486 12.200 15.610
8.488 12.266 15.647
8.490 12.333 15.688
8.493 12.400 15.728
8.497 12.466 15.761
8.497 12.533 15.800
8.496 12.600 15.840
8.495 12.668 15.878
8.496 12.735 15.921
8.496 12.802 15.966
8.499 12.868 16.023
8.507 12.938 16.086
8.512 13.008 16.162
8.516 13.078 16.243
8.517 13.148 16.316
8.517 13.218 16.393
8.520 13.290 16.490
8.523 13.361 16.591
8.526 13.432 16.701
8.535 13.505 16.826
17.152 11.936 15.667
17.152 11.870 15.660
17.152 11.806 15.656
17.153 11.743 15.653
17.156 11.678 15.651
17.157 11.613 15.651
17.157 11.548 15.649
17.155 11.484 15.643
17.153 11.420 15.644
17.155 11.355 15.644
17.158 11.290 15.649
17.161 11.228 15.656
17.163 11.164 15.664
17.163 11.100 15.665
17.163 11.035 15.663
8.640 8.145 18.501
8.640 8.205 18.378
8.643 8.264 18.265
8.642 8.323 18.153
8.638 8.384 18.063
8.636 8.445 17.978
8.633 8.507 17.899
8.632 8.569 17.832
8.631 8.630 17.762
8.630 8.691 17.710
8.629 8.754 17.669
8.628 8.818 17.623
8.628 8.880 17.575
8.628 8.943 17.551
8.627 9.008 17.522
8.627 9.070 17.482
8.625 9.133 17.432
8.622 9.195 17.384
8.620 9.258 17.347
8.619 9.321 17.316
8.617 9.384 17.280
8.615 9.448 17.240
8.615 9.510 17.197
8.614 9.573 17.152
8.612 9.635 17.109
8.609 9.698 17.058
8.606 9.760 17.007
8.603 9.821 16.955
8.602 9.883 16.904
8.599 9.945 16.844
8.595 10.007 16.782
8.592 10.068 16.708
8.590 10.129 16.634
8.591 10.191 16.571
8.589 10.252 16.499
8.587 10.311 16.426
8.586 10.372 16.354
8.587 10.433 16.293
8.586 10.495 16.230
8.586 10.557 16.174
8.585 10.618 16.124
8.583 10.680 16.071
8.582 10.742 16.022
8.580 10.802 15.961
8.580 10.863 15.903
8.580 10.925 15.857
8.578 10.988 15.818
8.578 11.050 15.785
8.578 11.113 15.744
8.580 11.175 15.705
8.582 11.236 15.663
8.584 11.298 15.615
8.583 11.360 15.567
8.582 11.422 15.530
8.577 11.485 15.501
8.573 11.546 15.479
8.573 11.610 15.473
8.573 11.675 15.471
8.571 11.740 15.465
8.570 11.803 15.462
8.570 11.866 15.461
8.570 11.932 15.475
8.570 11.998 15.488
8.570 12.062 15.498
8.571 12.128 15.518
8.574 12.195 15.541
8.576 12.260 15.571
8.576 12.328 15.611
8.578 12.395 15.648
8.582 12.460 15.676
8.583 12.528 15.718
8.583 12.595 15.763
8.583 12.663 15.799
8.583 12.730 15.838
8.582 12.796 15.881
8.584 12.863 15.937
8.590 12.932 15.993
8.595 13.001 16.062
8.602 13.070 16.139
8.605 13.140 16.212
8.605 13.210 16.286
8.607 13.281 16.366
8.610 13.350 16.445
8.613 13.421 16.545
8.619 13.493 16.664
8.629 13.567 16.777
17.165 10.970 15.666
17.166 10.906 15.681
17.188 9.990 16.590
17.201 9.928 16.648
17.211 9.865 16.687
17.216 9.802 16.710
17.216 9.739 16.720
17.216 9.675 16.722
17.216 9.610 16.725
17.218 9.545 16.728
17.220 9.480 16.723
17.223 9.415 16.730
17.224 9.350 16.737
17.223 9.285 16.744
17.221 9.222 16.751
17.219 9.158 16.758
8.737 8.085 18.600
8.733 8.144 18.482
8.731 8.203 18.360
8.732 8.263 18.253
8.730 8.323 18.152
8.728 8.383 18.062
8.724 8.443 17.974
8.723 8.505 17.897
8.724 8.568 17.834
8.723 8.630 17.764
8.721 8.691 17.709
8.720 8.753 17.668
8.718 8.817 17.624
8.718 8.880 17.576
8.718 8.943 17.546
8.716 9.007 17.515
8.716 9.070 17.481
8.715 9.133 17.434
8.713 9.195 17.390
8.710 9.258 17.353
8.708 9.320 17.320
8.707 9.383 17.280
8.707 9.447 17.238
8.707 9.510 17.199
8.705 9.573 17.156
8.703 9.637 17.116
8.701 9.700 17.074
8.698 9.762 17.023
8.695 9.823 16.971
8.694 9.884 16.918
8.691 9.946 16.855
8.687 10.008 16.796
8.683 10.070 16.730
8.680 10.131 16.664
8.680 10.192 16.600
8.678 10.253 16.532
8.675 10.313 16.462
8.675 10.373 16.394
8.674 10.435 16.334
8.673 10.497 16.271
8.671 10.558 16.212
8.670 10.620 16.163
8.668 10.683 16.115
8.666 10.744 16.064
8.666 10.803 15.998
8.666 10.865 15.941
8.668 10.928 15.895
8.667 10.990 15.852
8.664 11.053 15.810
8.664 11.115 15.766
8.668 11.177 15.727
8.672 11.238 15.682
8.674 11.299 15.627
8.673 11.360 15.571
8.672 11.421 15.523
8.668 11.484 15.484
8.666 11.545 15.452
8.667 11.608 15.436
8.666 11.673 15.431
8.664 11.737 15.424
8.662 11.800 15.418
8.661 11.865 15.419
8.660 11.930 15.426
8.660 11.995 15.433
8.660 12.058 15.437
8.660 12.124 15.450
8.660 12.190 15.468
8.661 12.256 15.495
8.663 12.323 15.535
8.665 12.390 15.570
8.668 12.455 15.606
8.669 12.523 15.649
8.671 12.590 15.692
8.671 12.658 15.729
8.670 12.725 15.760
8.670 12.790 15.800
8.672 12.858 15.857
8.675 12.927 15.909
8.679 12.995 15.968
8.685 13.064 16.038
8.691 13.133 16.107
8.693 13.203 16.182
8.693 13.274 16.259
8.695 13.343 16.332
8.700 13.413 16.420
8.706 13.484 16.523
8.711 13.556 16.629
8.715 13.629 16.743
8.721 13.703 16.872
17.221 9.093 16.774
17.225 9.030 16.807
17.227 8.967 16.831
17.227 8.903 16.852
17.227 8.838 16.883
17.226 8.775 16.914
17.225 8.713 16.950
17.226 8.652 17.002
17.226 8.588 17.050
17.228 8.525 17.104
17.229 8.463 17.162
17.230 8.401 17.217
17.232 8.340 17.285
17.233 8.278 17.340
17.234 8.215 17.400
8.832 8.023 18.707
8.831 8.083 18.590
8.827 8.142 18.480
8.824 8.201 18.362
8.823 8.261 18.254
8.821 8.322 18.157
8.820 8.383 18.064
8.818 8.443 17.977
8.820 8.505 17.903
8.821 8.568 17.844
8.820 8.630 17.778
8.817 8.692 17.725
8.815 8.755 17.686
8.811 8.818 17.640
8.812 8.880 17.593
8.812 8.943 17.556
8.810 9.007 17.521
8.808 9.070 17.487
8.807 9.133 17.442
8.806 9.197 17.406
8.803 9.260 17.370
8.802 9.322 17.331
8.800 9.385 17.287
8.800 9.448 17.250
8.798 9.512 17.217
8.795 9.575 17.171
8.793 9.638 17.131
8.793 9.700 17.097
8.790 9.763 17.045
8.786 9.823 16.992
8.785 9.885 16.938
8.783 9.947 16.873
8.780 10.010 16.820
8.776 10.072 16.765
8.774 10.133 16.705
8.771 10.195 16.640
8.769 10.255 16.574
8.767 10.315 16.508
8.765 10.377 16.441
8.762 10.438 16.378
8.762 10.500 16.319
8.760 10.562 16.262
8.758 10.623 16.206
8.756 10.685 16.155
8.756 10.747 16.103
8.755 10.806 16.042
8.756 10.868 15.988
8.758 10.930 15.938
8.758 10.993 15.891
8.758 11.055 15.845
8.758 11.116 15.791
8.758 11.178 15.739
8.760 11.238 15.691
8.761 11.300 15.636
8.762 11.360 15.578
8.762 11.422 15.526
8.761 11.483 15.478
8.761 11.543 15.435
8.759 11.607 15.408
8.756 11.670 15.394
8.754 11.734 15.383
8.751 11.797 15.375
8.749 11.862 15.381
8.748 11.928 15.383
8.748 11.992 15.385
8.748 12.055 15.390
8.748 12.121 15.399
8.748 12.187 15.414
8.749 12.252 15.436
8.750 12.318 15.467
8.753 12.384 15.494
8.755 12.450 15.535
8.757 12.518 15.576
8.760 12.585 15.614
8.760 12.653 15.650
8.760 12.720 15.684
8.759 12.785 15.724
8.760 12.853 15.772
8.763 12.920 15.817
8.766 12.988 15.868
8.770 13.058 15.932
8.777 13.127 16.004
8.780 13.196 16.076
8.780 13.266 16.151
8.780 13.337 16.233
8.783 13.405 16.312
8.789 13.476 16.398
8.793 13.547 16.494
8.799 13.618 16.587
8.803 13.691 16.704
17.236 8.153 17.461
17.239 8.092 17.532
17.242 8.030 17.598
17.245 7.968 17.676
17.253 7.905 17.753
17.258 7.843 17.821
17.264 7.783 17.906
17.270 7.722 17.999
17.069 12.842 15.718
17.069 12.777 15.703
17.066 12.710 15.685
17.065 12.645 15.672
17.063 12.580 15.663
17.063 12.515 15.650
17.062 12.450 15.637
8.924 7.960 18.821
8.922 8.020 18.693
8.920 8.080 18.576
8.918 8.140 18.472
8.916 8.200 18.359
8.915 8.261 18.256
8.913 8.322 18.161
8.913 8.383 18.071
8.913 8.444 17.988
8.914 8.506 17.918
8.914 8.568 17.853
8.913 8.630 17.793
8.912 8.693 17.739
8.909 8.755 17.698
8.905 8.818 17.652
8.906 8.880 17.607
8.905 8.943 17.565
8.903 9.007 17.527
8.900 9.070 17.489
8.898 9.133 17.444
8.897 9.197 17.413
8.895 9.260 17.380
8.894 9.323 17.343
8.893 9.385 17.303
8.893 9.448 17.269
8.891 9.512 17.238
8.888 9.575 17.197
8.885 9.638 17.158
8.885 9.702 17.122
8.882 9.764 17.070
8.880 9.825 17.016
8.879 9.887 16.963
8.878 9.948 16.907
8.876 10.012 16.859
8.872 10.074 16.806
8.869 10.135 16.743
8.867 10.197 16.678
8.865 10.258 16.614
8.862 10.318 16.551
8.857 10.378 16.483
8.852 10.440 16.418
8.853 10.503 16.364
8.853 10.565 16.310
8.852 10.626 16.251
8.851 10.688 16.195
8.850 10.749 16.141
8.849 10.808 16.090
8.850 10.870 16.039
8.851 10.933 15.989
8.852 10.995 15.943
8.852 11.057 15.893
8.852 11.118 15.829
8.852 11.179 15.765
8.851 11.238 15.705
8.850 11.300 15.648
8.850 11.360 15.585
8.849 11.421 15.525
8.851 11.482 15.473
8.850 11.543 15.425
8.848 11.605 15.393
8.845 11.668 15.373
8.843 11.732 15.357
8.841 11.795 15.348
8.840 11.860 15.348
8.838 11.925 15.344
8.835 11.988 15.343
8.835 12.053 15.348
8.836 12.117 15.354
8.836 12.183 15.367
8.836 12.248 15.383
8.836 12.313 15.402
8.840 12.378 15.422
8.844 12.445 15.465
8.845 12.513 15.503
8.847 12.580 15.542
8.848 12.647 15.573
8.850 12.714 15.608
8.850 12.780 15.648
8.850 12.847 15.688
8.852 12.915 15.730
8.854 12.982 15.774
8.856 13.050 15.833
8.860 13.120 15.906
8.863 13.190 15.976
8.867 13.260 16.049
8.868 13.330 16.132
8.867 13.398 16.205
8.870 13.468 16.286
8.874 13.539 16.375
8.881 13.610 16.465
8.888 13.683 16.575
8.890 13.756 16.696
17.060 12.385 15.622
17.058 12.320 15.614
17.060 12.255 15.606
17.059 12.190 15.596
17.057 12.125 15.580
17.054 12.060 15.567
17.053 11.995 15.560
17.053 11.930 15.549
17.053 11.865 15.540
17.053 11.800 15.536
17.057 11.737 15.535
17.059 11.672 15.534
17.060 11.607 15.532
17.060 11.542 15.528
17.059 11.478 15.528
17.058 11.413 15.536
9.018 7.900 18.938
9.016 7.960 18.818
9.014 8.020 18.697
9.011 8.080 18.573
9.010 8.140 18.469
9.010 8.201 18.367
9.011 8.262 18.273
9.009 8.323 18.179
9.007 8.383 18.091
9.005 8.445 18.007
9.004 8.507 17.934
9.003 8.568 17.863
9.001 8.630 17.808
9.000 8.693 17.750
9.000 8.755 17.707
8.996 8.818 17.664
8.996 8.882 17.621
8.996 8.943 17.577
8.994 9.008 17.538
8.991 9.071 17.498
8.988 9.134 17.458
8.988 9.198 17.430
8.986 9.260 17.394
8.985 9.323 17.356
8.986 9.386 17.321
8.985 9.449 17.284
8.983 9.513 17.248
8.980 9.577 17.213
8.978 9.640 17.176
8.977 9.703 17.138
8.977 9.765 17.089
8.975 9.826 17.041
8.973 9.888 16.994
8.970 9.950 16.945
8.968 10.013 16.896
8.966 10.075 16.839
8.964 10.138 16.781
8.963 10.199 16.720
8.960 10.260 16.656
8.957 10.320 16.595
8.954 10.382 16.533
8.950 10.443 16.466
8.950 10.505 16.410
8.952 10.568 16.359
8.951 10.629 16.308
8.949 10.690 16.250
8.948 10.752 16.188
8.947 10.812 16.138
8.947 10.873 16.089
8.947 10.935 16.039
8.947 10.998 15.994
8.945 11.059 15.940
8.944 11.120 15.867
8.943 11.180 15.798
8.943 11.238 15.733
8.942 11.300 15.666
8.941 11.360 15.591
8.940 11.420 15.523
8.940 11.482 15.470
8.939 11.543 15.420
8.936 11.603 15.382
8.935 11.667 15.361
8.934 11.730 15.336
8.933 11.793 15.317
8.932 11.858 15.313
8.928 11.922 15.305
8.924 11.985 15.300
8.923 12.050 15.299
8.924 12.113 15.300
8.925 12.178 15.308
8.925 12.244 15.323
8.926 12.308 15.344
8.929 12.374 15.365
8.932 12.441 15.403
8.933 12.508 15.434
8.935 12.575 15.468
8.938 12.641 15.499
8.940 12.708 15.536
8.941 12.775 15.574
8.940 12.841 15.609
8.940 12.908 15.645
8.941 12.975 15.684
8.941 13.043 15.738
8.944 13.113 15.806
8.946 13.183 15.876
8.951 13.253 15.950
8.956 13.322 16.031
8.953 13.390 16.095
8.956 13.460 16.170
8.959 13.530 16.251
8.965 13.601 16.340
8.972 13.674 16.446
8.974 13.746 16.552
8.979 13.818 16.657
17.058 11.349 15.532
17.058 11.283 15.528
17.058 11.220 15.530
17.059 11.157 15.537
17.061 11.093 15.542
17.064 11.028 15.546
17.065 10.963 15.543
17.066 10.898 15.547
17.067 10.835 15.560
17.067 10.771 15.579
17.068 10.709 15.602
17.088 9.922 16.534
17.105 9.862 16.611
17.115 9.800 16.660
9.113 7.838 19.056
9.110 7.899 18.935
9.108 7.960 18.822
9.107 8.020 18.703
9.103 8.080 18.580
9.103 8.141 18.478
9.103 8.202 18.385
9.103 8.263 18.293
9.102 8.323 18.204
9.098 8.385 18.120
9.096 8.446 18.034
9.093 8.508 17.954
9.092 8.570 17.882
9.089 8.632 17.828
9.089 8.693 17.772
9.091 8.757 17.729
9.090 8.820 17.680
9.089 8.883 17.632
9.088 8.945 17.587
9.086 9.009 17.552
9.084 9.072 17.511
9.083 9.135 17.474
9.082 9.198 17.444
9.079 9.262 17.403
9.076 9.323 17.364
9.077 9.387 17.336
9.075 9.450 17.296
9.073 9.513 17.259
9.072 9.577 17.233
9.069 9.640 17.198
9.068 9.703 17.161
9.070 9.765 17.113
9.069 9.828 17.069
9.067 9.890 17.028
9.063 9.953 16.981
9.062 10.015 16.933
9.060 10.078 16.878
9.058 10.139 16.822
9.057 10.201 16.759
9.053 10.262 16.694
9.051 10.323 16.631
9.050 10.383 16.574
9.048 10.445 16.512
9.047 10.508 16.459
9.047 10.570 16.408
9.046 10.631 16.352
9.044 10.693 16.294
9.042 10.755 16.237
9.041 10.815 16.187
9.042 10.876 16.135
9.041 10.938 16.080
9.040 11.000 16.029
9.038 11.060 15.969
9.036 11.121 15.895
9.036 11.182 15.828
9.037 11.240 15.763
9.035 11.300 15.685
9.032 11.360 15.601
9.030 11.420 15.521
9.028 11.481 15.459
9.026 11.542 15.412
9.025 11.603 15.374
9.026 11.667 15.352
9.025 11.730 15.322
9.023 11.791 15.295
9.022 11.855 15.287
9.018 11.920 15.273
9.017 11.983 15.262
9.016 12.047 15.257
9.015 12.110 15.257
9.016 12.175 15.259
9.017 12.242 15.273
9.017 12.305 15.295
9.017 12.371 15.310
9.020 12.437 15.335
9.021 12.503 15.354
9.023 12.570 15.382
9.027 12.635 15.417
9.028 12.703 15.459
9.030 12.771 15.504
9.028 12.836 15.537
9.029 12.903 15.566
9.030 12.970 15.606
9.030 13.039 15.659
9.031 13.108 15.719
9.033 13.176 15.783
9.036 13.245 15.856
9.042 13.315 15.934
9.042 13.383 15.993
9.044 13.453 16.060
9.048 13.523 16.137
9.052 13.593 16.218
9.056 13.665 16.313
9.059 13.737 16.417
9.063 13.808 16.510
9.068 13.880 16.614
17.119 9.737 16.681
17.122 9.673 16.690
17.124 9.608 16.696
17.125 9.543 16.696
17.126 9.478 16.687
17.128 9.413 16.690
17.128 9.348 16.693
17.128 9.283 16.698
17.128 9.220 16.708
17.127 9.157 16.723
17.128 9.092 16.735
17.132 9.028 16.766
9.209 7.779 19.179
9.207 7.838 19.049
9.203 7.898 18.930
9.202 7.960 18.820
9.199 8.021 18.713
9.197 8.082 18.606
9.195 8.142 18.506
9.195 8.203 18.416
9.196 8.265 18.331
9.196 8.325 18.243
9.193 8.387 18.156
9.189 8.448 18.066
9.186 8.508 17.979
9.185 8.570 17.910
9.182 8.633 17.855
9.180 8.695 17.798
9.181 8.758 17.750
9.182 8.820 17.696
9.180 8.883 17.644
9.178 8.945 17.593
9.175 9.008 17.552
9.175 9.072 17.509
9.175 9.135 17.479
9.173 9.199 17.454
9.171 9.263 17.420
9.168 9.325 17.388
9.169 9.388 17.362
9.168 9.451 17.321
9.165 9.514 17.281
9.163 9.578 17.254
9.162 9.642 17.226
9.161 9.705 17.193
9.162 9.767 17.151
9.161 9.830 17.108
9.159 9.892 17.065
9.157 9.955 17.020
9.155 10.018 16.973
9.153 10.079 16.920
9.152 10.141 16.864
9.150 10.203 16.803
9.148 10.265 16.744
9.146 10.325 16.680
9.145 10.385 16.622
9.143 10.448 16.558
9.141 10.510 16.504
9.140 10.572 16.452
9.139 10.633 16.390
9.137 10.695 16.333
9.135 10.757 16.284
9.135 10.818 16.239
9.135 10.879 16.184
9.135 10.940 16.126
9.135 11.002 16.073
9.133 11.063 16.007
9.132 11.123 15.938
9.131 11.184 15.864
9.129 11.243 15.786
9.126 11.302 15.696
9.123 11.362 15.608
9.120 11.420 15.523
9.118 11.480 15.455
9.117 11.542 15.412
9.116 11.603 15.372
9.115 11.667 15.343
9.113 11.730 15.312
9.112 11.791 15.281
9.112 11.854 15.264
9.110 11.918 15.248
9.110 11.981 15.231
9.109 12.045 15.223
9.108 12.108 15.224
9.108 12.173 15.225
9.109 12.239 15.235
9.107 12.303 15.253
9.106 12.368 15.263
9.109 12.433 15.276
9.109 12.498 15.286
9.111 12.565 15.308
9.114 12.630 15.343
9.115 12.698 15.385
9.118 12.767 15.432
9.118 12.831 15.463
9.118 12.898 15.489
9.118 12.965 15.532
9.119 13.033 15.582
9.121 13.102 15.637
9.122 13.170 15.692
9.125 13.239 15.760
9.130 13.308 15.833
9.132 13.377 15.898
9.133 13.446 15.965
9.135 13.515 16.037
9.138 13.585 16.112
9.140 13.656 16.198
9.141 13.728 16.299
9.146 13.800 16.390
9.153 13.871 16.487
17.134 8.965 16.799
17.133 8.901 16.826
17.132 8.838 16.861
17.133 8.775 16.897
17.134 8.713 16.941
17.133 8.650 16.992
17.134 8.588 17.044
17.133 8.525 17.107
17.135 8.464 17.174
17.135 8.402 17.237
17.137 8.340 17.307
17.138 8.278 17.365
17.141 8.217 17.436
17.146 8.156 17.512
17.151 8.095 17.592
17.155 8.033 17.665
9.301 7.778 19.175
9.300 7.838 19.046
9.297 7.898 18.932
9.295 7.960 18.828
9.293 8.022 18.729
9.291 8.083 18.632
9.288 8.143 18.536
9.288 8.205 18.448
9.290 8.267 18.368
9.287 8.328 18.277
9.284 8.388 18.188
9.283 8.450 18.102
9.282 8.510 18.021
9.279 8.573 17.948
9.275 8.634 17.887
9.273 8.696 17.824
9.271 8.758 17.768
9.271 8.820 17.712
9.269 8.883 17.655
9.266 8.946 17.602
9.266 9.010 17.562
9.266 9.073 17.522
9.267 9.136 17.497
9.265 9.200 17.471
9.264 9.263 17.442
9.263 9.326 17.413
9.262 9.389 17.386
9.259 9.452 17.342
9.256 9.515 17.304
9.255 9.578 17.276
9.253 9.642 17.248
9.253 9.705 17.216
9.254 9.768 17.178
9.253 9.830 17.140
9.251 9.893 17.097
9.250 9.956 17.055
9.249 10.019 17.008
9.246 10.081 16.959
9.245 10.143 16.905
9.243 10.205 16.844
9.240 10.267 16.794
9.238 10.328 16.733
9.237 10.388 16.672
9.236 10.450 16.609
9.233 10.513 16.553
9.231 10.575 16.502
9.230 10.635 16.439
9.228 10.698 16.383
9.228 10.760 16.336
9.228 10.820 16.284
9.228 10.881 16.225
9.228 10.943 16.165
9.229 11.005 16.113
9.226 11.065 16.049
9.227 11.125 15.979
9.226 11.185 15.890
9.223 11.243 15.798
9.219 11.303 15.704
9.215 11.362 15.615
9.212 11.420 15.526
9.210 11.481 15.452
9.209 11.542 15.410
9.207 11.603 15.373
9.205 11.666 15.339
9.203 11.729 15.307
9.201 11.790 15.275
9.201 11.853 15.253
9.201 11.917 15.238
9.200 11.980 15.218
9.198 12.043 15.199
9.199 12.107 15.193
9.199 12.172 15.192
9.198 12.237 15.198
9.196 12.300 15.210
9.195 12.365 15.212
9.195 12.428 15.213
9.196 12.493 15.218
9.197 12.560 15.242
9.198 12.626 15.273
9.200 12.693 15.309
9.204 12.762 15.354
9.205 12.826 15.388
9.205 12.893 15.417
9.206 12.960 15.463
9.208 13.029 15.508
9.211 13.096 15.558
9.211 13.165 15.609
9.213 13.233 15.671
9.221 13.302 15.741
9.224 13.371 15.811
9.223 13.440 15.881
9.223 13.510 15.949
9.225 13.580 16.020
9.227 13.650 16.100
9.227 13.721 16.190
9.231 13.792 16.281
9.238 13.863 16.373
9.246 13.933 16.474
17.161 7.972 17.747
17.168 7.908 17.824
16.974 12.963 15.621
16.971 12.898 15.609
16.970 12.833 15.603
16.970 12.769 15.589
16.968 12.703 15.573
16.967 12.638 15.558
16.966 12.573 15.550
16.965 12.508 15.542
16.963 12.443 15.533
16.962 12.378 15.519
16.959 12.313 15.505
16.960 12.248 15.491
16.960 12.183 15.483
16.960 12.118 15.472
16.960 12.053 15.456
16.958 11.988 15.444
9.397 7.720 19.301
9.395 7.778 19.177
9.394 7.838 19.058
9.390 7.900 18.952
9.387 7.961 18.851
9.387 8.023 18.759
9.386 8.085 18.668
9.383 8.145 18.578
9.381 8.207 18.488
9.382 8.268 18.413
9.378 8.330 18.322
9.376 8.390 18.234
9.374 8.452 18.155
9.374 8.513 18.079
9.372 8.575 18.000
9.368 8.636 17.931
9.365 8.698 17.863
9.363 8.759 17.796
9.362 8.821 17.739
9.362 8.883 17.684
9.361 8.947 17.639
9.361 9.012 17.604
9.360 9.075 17.563
9.359 9.137 17.528
9.358 9.201 17.493
9.357 9.264 17.462
9.355 9.327 17.435
9.353 9.390 17.407
9.351 9.453 17.364
9.350 9.517 17.333
9.349 9.580 17.305
9.348 9.643 17.273
9.346 9.707 17.243
9.346 9.770 17.207
9.345 9.831 17.166
9.344 9.895 17.130
9.342 9.958 17.093
9.340 10.020 17.047
9.338 10.083 17.001
9.337 10.145 16.950
9.335 10.208 16.890
9.334 10.270 16.844
9.332 10.330 16.788
9.330 10.392 16.727
9.329 10.453 16.667
9.328 10.515 16.613
9.324 10.577 16.555
9.323 10.638 16.493
9.321 10.700 16.440
9.322 10.763 16.394
9.322 10.823 16.344
9.322 10.884 16.286
9.322 10.945 16.221
9.322 11.007 16.157
9.319 11.068 16.086
9.319 11.128 16.008
9.318 11.187 15.912
9.315 11.243 15.814
9.311 11.303 15.721
9.306 11.362 15.628
9.302 11.421 15.542
9.300 11.482 15.470
9.298 11.543 15.423
9.297 11.605 15.391
9.295 11.667 15.356
9.292 11.730 15.321
9.292 11.791 15.290
9.291 11.854 15.260
9.290 11.918 15.234
9.288 11.980 15.207
9.288 12.043 15.182
9.288 12.106 15.170
9.289 12.170 15.166
9.288 12.235 15.164
9.287 12.298 15.164
9.285 12.362 15.158
9.283 12.425 15.153
9.283 12.490 15.161
9.283 12.557 15.189
9.284 12.622 15.214
9.286 12.688 15.244
9.289 12.757 15.288
9.291 12.822 15.324
9.294 12.888 15.349
9.295 12.956 15.393
9.297 13.024 15.437
9.299 13.091 15.485
9.298 13.160 15.534
9.301 13.228 15.595
9.308 13.297 15.664
9.313 13.365 15.730
9.314 13.433 15.795
9.313 13.503 15.862
9.315 13.573 15.929
9.316 13.643 16.010
9.316 13.714 16.096
9.319 13.785 16.178
9.324 13.855 16.262
9.332 13.925 16.354
16.956 11.923 15.435
16.956 11.858 15.428
16.956 11.793 15.427
16.958 11.730 15.429
16.960 11.665 15.425
16.960 11.600 15.420
16.960 11.535 15.418
16.959 11.471 15.418
16.958 11.407 15.422
16.958 11.343 15.419
16.958 11.278 15.420
16.957 11.214 15.426
16.958 11.150 15.431
16.961 11.085 15.433
16.965 11.021 15.439
16.966 10.957 15.439
16.965 10.893 15.440
9.492 7.660 19.427
9.488 7.720 19.300
9.488 7.780 19.185
9.487 7.840 19.081
9.483 7.902 18.988
9.480 7.963 18.892
9.480 8.025 18.805
9.479 8.087 18.717
9.475 8.148 18.629
9.473 8.210 18.544
9.474 8.271 18.473
9.471 8.332 18.386
9.468 8.393 18.292
9.464 8.453 18.207
9.461 8.515 18.130
9.463 8.577 18.056
9.462 8.638 17.978
9.459 8.699 17.902
9.456 8.761 17.827
9.455 8.823 17.770
9.455 8.885 17.714
9.454 8.948 17.668
9.453 9.012 17.629
9.450 9.075 17.588
9.449 9.138 17.551
9.449 9.202 17.513
9.447 9.265 17.479
9.445 9.328 17.449
9.445 9.390 17.420
9.443 9.454 17.387
9.442 9.518 17.357
9.442 9.581 17.326
9.442 9.644 17.291
9.440 9.708 17.268
9.439 9.772 17.236
9.436 9.833 17.200
9.435 9.897 17.167
9.433 9.960 17.128
9.431 10.023 17.083
9.431 10.085 17.045
9.430 10.148 17.001
9.428 10.210 16.945
9.425 10.272 16.894
9.423 10.333 16.841
9.422 10.395 16.787
9.421 10.457 16.733
9.421 10.519 16.678
9.416 10.581 16.613
9.415 10.643 16.556
9.414 10.705 16.505
9.413 10.767 16.456
9.413 10.827 16.407
9.413 10.888 16.346
9.414 10.948 16.274
9.414 11.010 16.199
9.414 11.070 16.123
9.413 11.129 16.033
9.409 11.188 15.934
9.403 11.245 15.844
9.399 11.305 15.748
9.393 11.363 15.646
9.388 11.423 15.566
9.388 11.483 15.499
9.387 11.544 15.447
9.385 11.606 15.413
9.382 11.668 15.376
9.379 11.730 15.337
9.378 11.792 15.303
9.379 11.855 15.265
9.380 11.918 15.234
9.380 11.980 15.208
9.380 12.043 15.184
9.378 12.105 15.167
9.378 12.170 15.156
9.378 12.233 15.144
9.376 12.296 15.134
9.373 12.360 15.120
9.372 12.423 15.113
9.371 12.488 15.122
9.370 12.554 15.145
9.371 12.618 15.162
9.371 12.685 15.187
9.375 12.753 15.226
9.378 12.818 15.261
9.380 12.885 15.287
9.381 12.952 15.327
9.383 13.020 15.369
9.385 13.086 15.416
9.385 13.155 15.464
9.388 13.223 15.517
9.393 13.291 15.578
9.398 13.359 15.638
9.402 13.428 15.701
9.404 13.498 15.776
9.405 13.568 15.850
9.406 13.638 15.929
9.405 13.708 16.001
9.406 13.778 16.075
9.411 13.848 16.157
9.418 13.917 16.244
16.966 10.828 15.450
16.967 10.765 15.459
16.968 10.702 15.467
16.970 10.638 15.490
16.972 10.575 15.513
16.974 10.513 15.546
16.975 10.450 15.584
17.008 9.795 16.591
17.020 9.735 16.639
17.026 9.671 16.661
17.029 9.607 16.669
17.031 9.542 16.669
17.033 9.476 16.663
17.035 9.410 16.664
17.035 9.345 16.663
17.035 9.281 16.666
17.035 9.218 16.674
17.034 9.155 16.692
17.035 9.091 16.709
9.585 7.660 19.429
9.580 7.720 19.310
9.580 7.780 19.209
9.581 7.841 19.115
9.577 7.903 19.036
9.574 7.965 18.951
9.573 8.028 18.868
9.569 8.090 18.778
9.566 8.150 18.688
9.565 8.213 18.605
9.565 8.274 18.537
9.562 8.335 18.453
9.558 8.395 18.358
9.554 8.457 18.268
9.552 8.518 18.183
9.554 8.580 18.111
9.553 8.640 18.026
9.552 8.701 17.942
9.548 8.763 17.864
9.548 8.824 17.806
9.548 8.886 17.745
9.547 8.948 17.691
9.545 9.013 17.644
9.543 9.076 17.604
9.541 9.139 17.565
9.540 9.203 17.525
9.539 9.265 17.493
9.538 9.328 17.463
9.537 9.391 17.430
9.533 9.455 17.398
9.533 9.518 17.370
9.533 9.582 17.345
9.534 9.646 17.318
9.534 9.710 17.303
9.532 9.773 17.267
9.528 9.835 17.231
9.527 9.898 17.199
9.525 9.961 17.161
9.524 10.025 17.121
9.523 10.088 17.090
9.521 10.152 17.054
9.520 10.214 17.004
9.517 10.275 16.949
9.515 10.335 16.893
9.513 10.398 16.843
9.513 10.460 16.799
9.512 10.523 16.749
9.508 10.585 16.686
9.506 10.647 16.630
9.506 10.708 16.579
9.503 10.770 16.526
9.503 10.831 16.477
9.505 10.892 16.415
9.508 10.952 16.334
9.509 11.013 16.241
9.509 11.072 16.154
9.504 11.130 16.050
9.498 11.189 15.951
9.491 11.248 15.866
9.487 11.307 15.773
9.480 11.365 15.675
9.476 11.425 15.596
9.475 11.485 15.526
9.474 11.546 15.475
9.471 11.608 15.436
9.470 11.670 15.395
9.468 11.732 15.355
9.469 11.793 15.319
9.469 11.855 15.275
9.470 11.918 15.243
9.470 11.980 15.220
9.471 12.043 15.197
9.470 12.105 15.176
9.469 12.169 15.160
9.469 12.232 15.138
9.467 12.295 15.118
9.465 12.358 15.095
9.463 12.420 15.086
9.462 12.485 15.091
9.461 12.550 15.100
9.462 12.615 15.109
9.461 12.682 15.134
9.463 12.749 15.168
9.465 12.813 15.198
9.468 12.880 15.223
9.468 12.948 15.258
9.470 13.015 15.299
9.472 13.082 15.347
9.473 13.150 15.392
9.474 13.218 15.436
9.478 13.285 15.488
9.482 13.353 15.551
9.486 13.421 15.618
9.490 13.492 15.699
9.493 13.562 15.774
9.495 13.632 15.851
9.493 13.701 15.916
9.495 13.770 15.984
9.499 13.840 16.058
9.504 13.909 16.136
9.508 13.980 16.218
17.038 9.028 16.739
17.040 8.964 16.778
17.040 8.900 16.815
17.040 8.838 16.852
17.040 8.775 16.890
17.042 8.713 16.940
17.041 8.650 16.992
17.041 8.588 17.047
17.041 8.526 17.113
9.743 6.985 22.270
9.741 7.048 22.190
9.739 7.112 22.112
17.042 8.465 17.192
17.041 8.403 17.271
17.044 8.342 17.352
17.049 8.281 17.422
16.881 13.220 15.599
16.879 13.155 15.578
16.877 13.088 15.561
16.877 13.023 15.543
9.680 7.598 19.555
9.677 7.660 19.441
9.672 7.721 19.331
9.672 7.782 19.241
9.671 7.843 19.145
9.668 7.905 19.066
9.666 7.966 18.987
9.664 8.030 18.912
9.660 8.092 18.830
9.657 8.153 18.747
9.656 8.215 18.667
9.655 8.277 18.594
9.651 8.338 18.513
9.649 8.398 18.420
9.646 8.460 18.329
9.643 8.520 18.238
9.645 8.582 18.159
9.645 8.643 18.075
9.645 8.703 17.993
9.643 8.765 17.913
9.641 8.826 17.845
9.642 8.888 17.779
9.640 8.950 17.722
9.638 9.014 17.670
9.637 9.077 17.629
9.635 9.140 17.582
9.633 9.203 17.540
9.631 9.267 17.508
9.630 9.330 17.481
9.629 9.392 17.448
9.625 9.456 17.414
9.623 9.519 17.384
9.623 9.583 17.362
9.625 9.647 17.336
9.624 9.712 17.326
9.623 9.775 17.295
9.621 9.837 17.263
9.618 9.900 17.229
9.615 9.963 17.193
9.613 10.027 17.158
9.611 10.090 17.130
9.609 10.153 17.090
9.609 10.215 17.043
9.608 10.278 16.996
9.606 10.338 16.946
9.605 10.400 16.898
9.604 10.463 16.852
9.602 10.527 16.810
9.598 10.588 16.757
9.597 10.650 16.709
9.597 10.713 16.663
9.594 10.775 16.607
9.595 10.835 16.557
9.600 10.895 16.486
9.602 10.955 16.391
9.602 11.014 16.281
9.601 11.073 16.179
9.593 11.130 16.068
9.585 11.190 15.971
9.579 11.248 15.885
9.573 11.307 15.792
9.568 11.366 15.705
9.563 11.425 15.628
9.561 11.486 15.559
9.560 11.548 15.511
9.560 11.610 15.467
9.559 11.672 15.422
9.558 11.733 15.374
9.558 11.793 15.335
9.558 11.855 15.290
9.558 11.918 15.253
9.557 11.980 15.224
9.558 12.043 15.195
9.558 12.105 15.171
9.558 12.168 15.146
9.558 12.230 15.118
9.557 12.293 15.098
9.555 12.355 15.073
9.553 12.418 15.057
9.553 12.483 15.056
9.553 12.547 15.055
9.553 12.611 15.061
9.552 12.678 15.081
9.552 12.744 15.105
9.553 12.808 15.129
9.557 12.875 15.154
9.558 12.943 15.188
9.559 13.010 15.229
9.561 13.078 15.273
9.562 13.145 15.314
9.563 13.212 15.353
9.563 13.278 15.402
9.567 13.347 15.465
9.572 13.415 15.532
9.576 13.485 15.614
9.582 13.555 15.689
9.584 13.625 15.766
9.583 13.695 15.834
9.585 13.764 15.896
9.587 13.834 15.963
9.589 13.902 16.034
9.591 13.973 16.112
16.876 12.957 15.520
16.873 12.892 15.501
16.871 12.826 15.491
16.871 12.762 15.479
16.870 12.697 15.472
16.870 12.631 15.457
16.870 12.567 15.451
16.869 12.502 15.445
16.867 12.437 15.436
16.865 12.372 15.422
9.840 6.918 22.260
9.846 6.983 22.210
9.845 7.046 22.152
9.840 7.111 22.092
16.863 12.306 15.402
16.863 12.242 15.380
16.863 12.176 15.370
16.863 12.110 15.365
16.866 12.047 15.356
16.865 11.981 15.345
16.863 11.917 15.336
16.862 11.852 15.326
9.771 7.598 19.562
9.769 7.660 19.455
9.767 7.722 19.356
9.766 7.783 19.273
9.767 7.843 19.182
9.764 7.907 19.103
9.760 7.968 19.027
9.758 8.032 18.955
9.754 8.095 18.885
9.751 8.157 18.816
9.749 8.218 18.738
9.747 8.280 18.654
9.743 8.340 18.572
9.740 8.402 18.488
9.737 8.463 18.401
9.736 8.523 18.308
9.737 8.585 18.221
9.737 8.645 18.142
9.737 8.707 18.062
9.736 8.768 17.975
9.734 8.828 17.893
9.736 8.890 17.818
9.735 8.952 17.757
9.733 9.015 17.700
9.732 9.078 17.654
9.729 9.141 17.606
9.727 9.204 17.561
9.723 9.268 17.522
9.721 9.330 17.486
9.720 9.393 17.458
9.718 9.457 17.433
9.717 9.520 17.406
9.717 9.584 17.384
9.715 9.648 17.352
9.713 9.712 17.340
9.711 9.775 17.316
9.712 9.838 17.288
9.710 9.901 17.257
9.708 9.965 17.225
9.707 10.029 17.197
9.704 10.093 17.164
9.701 10.155 17.127
9.701 10.218 17.089
9.700 10.281 17.050
9.699 10.343 17.006
9.695 10.405 16.957
9.693 10.467 16.910
9.692 10.530 16.876
9.688 10.593 16.832
9.687 10.655 16.791
9.686 10.718 16.751
9.688 10.780 16.699
9.692 10.840 16.639
9.697 10.899 16.551
9.697 10.957 16.437
9.693 11.015 16.309
9.689 11.073 16.194
9.680 11.130 16.084
9.672 11.190 15.987
9.663 11.248 15.896
9.657 11.308 15.809
9.654 11.368 15.735
9.653 11.427 15.667
9.652 11.488 15.603
9.652 11.550 15.550
9.650 11.611 15.497
9.648 11.673 15.448
9.646 11.734 15.393
9.646 11.795 15.353
9.646 11.857 15.309
9.647 11.919 15.272
9.647 11.981 15.237
9.648 12.043 15.203
9.648 12.105 15.177
9.648 12.168 15.147
9.647 12.230 15.112
9.646 12.293 15.086
9.646 12.355 15.055
9.645 12.418 15.032
9.645 12.482 15.023
9.644 12.545 15.017
9.643 12.609 15.024
9.641 12.675 15.037
9.640 12.740 15.049
9.642 12.805 15.071
9.645 12.872 15.098
9.645 12.938 15.128
9.647 13.006 15.165
9.650 13.073 15.201
9.652 13.140 15.236
9.653 13.206 15.268
9.653 13.271 15.308
9.656 13.340 15.366
9.660 13.408 15.430
9.663 13.479 15.515
9.671 13.549 15.589
9.674 13.618 15.663
9.673 13.687 15.733
9.674 13.756 15.798
9.676 13.825 15.868
9.676 13.893 15.930
9.676 13.963 16.002
9.680 14.034 16.098
9.684 14.106 16.193
16.862 11.788 15.323
16.862 11.724 15.323
16.863 11.658 15.318
16.862 11.593 15.316
16.861 11.530 15.311
16.859 11.465 15.307
16.858 11.400 15.307
9.937 6.851 22.227
9.940 6.916 22.189
9.944 6.982 22.158
9.943 7.045 22.118
9.937 7.110 22.066
16.860 11.336 15.312
16.862 11.272 15.321
16.862 11.208 15.328
16.863 11.144 15.328
16.863 11.080 15.325
16.865 11.015 15.328
16.865 10.952 15.329
9.863 7.540 19.690
9.862 7.600 19.580
9.859 7.662 19.478
9.858 7.723 19.383
9.860 7.784 19.305
9.861 7.845 19.228
9.858 7.908 19.148
9.853 7.970 19.069
9.850 8.033 18.998
9.846 8.095 18.932
9.843 8.158 18.868
9.841 8.220 18.789
9.838 8.282 18.704
9.834 8.343 18.626
9.832 8.405 18.547
9.828 8.466 18.468
9.827 8.527 18.381
9.826 8.588 18.286
9.826 8.648 18.203
9.826 8.710 18.122
9.825 8.770 18.035
9.827 8.832 17.950
9.828 8.893 17.866
9.827 8.954 17.796
9.827 9.017 17.732
9.824 9.080 17.683
9.821 9.143 17.638
9.818 9.205 17.588
9.815 9.268 17.535
9.813 9.330 17.493
9.813 9.393 17.467
9.811 9.457 17.449
9.810 9.521 17.423
9.808 9.585 17.398
9.808 9.648 17.368
9.807 9.713 17.359
9.804 9.777 17.335
9.804 9.840 17.310
9.804 9.903 17.286
9.801 9.966 17.257
9.800 10.030 17.232
9.798 10.094 17.198
9.796 10.157 17.163
9.795 10.220 17.133
9.794 10.283 17.098
9.790 10.345 17.055
9.786 10.408 17.012
9.782 10.470 16.971
9.781 10.533 16.943
9.780 10.597 16.909
9.778 10.660 16.873
9.776 10.722 16.837
9.780 10.784 16.786
9.787 10.844 16.713
9.792 10.902 16.608
9.792 10.958 16.477
9.786 11.015 16.332
9.778 11.072 16.197
9.767 11.130 16.083
9.758 11.190 15.994
9.750 11.249 15.913
9.744 11.308 15.835
9.742 11.369 15.763
9.741 11.428 15.693
9.743 11.490 15.634
9.744 11.552 15.581
9.743 11.613 15.527
9.741 11.675 15.472
9.740 11.735 15.421
9.739 11.796 15.379
9.737 11.858 15.333
9.738 11.920 15.295
9.738 11.982 15.257
9.739 12.044 15.216
9.738 12.106 15.183
9.738 12.168 15.144
9.738 12.230 15.104
9.736 12.293 15.077
9.736 12.354 15.042
9.735 12.416 15.008
9.735 12.478 14.989
9.734 12.543 14.979
9.732 12.606 14.978
9.730 12.672 14.984
9.728 12.737 14.995
9.729 12.801 15.014
9.732 12.868 15.037
9.733 12.934 15.062
9.734 13.001 15.090
9.738 13.068 15.127
9.740 13.135 15.164
9.742 13.202 15.198
9.743 13.266 15.232
9.746 13.335 15.282
9.748 13.403 15.342
9.750 13.473 15.416
9.757 13.542 15.485
9.762 13.610 15.560
9.762 13.680 15.636
9.761 13.750 15.708
9.763 13.819 15.775
9.763 13.886 15.832
9.763 13.956 15.898
9.768 14.027 15.992
9.773 14.098 16.087
16.863 10.887 15.332
16.865 10.822 15.339
16.866 10.758 15.346
16.866 10.695 15.350
16.869 10.631 15.364
10.024 6.720 22.285
10.026 6.783 22.222
10.032 6.849 22.173
10.037 6.915 22.153
10.039 6.980 22.123
10.037 7.043 22.085
10.031 7.109 22.040
16.872 10.568 15.381
16.875 10.505 15.403
16.875 10.441 15.433
16.875 10.378 15.473
16.923 9.733 16.602
16.931 9.670 16.643
16.935 9.605 16.655
9.957 7.540 19.702
9.955 7.601 19.599
9.953 7.663 19.511
9.951 7.724 19.423
9.951 7.786 19.346
9.951 7.848 19.272
9.949 7.910 19.193
9.946 7.973 19.118
9.943 8.035 19.045
9.939 8.098 18.978
9.936 8.160 18.911
9.933 8.223 18.836
9.930 8.285 18.760
9.927 8.345 18.689
9.924 8.408 18.613
9.920 8.469 18.529
9.918 8.530 18.440
9.914 8.590 18.346
9.914 8.651 18.263
9.914 8.712 18.178
9.914 8.773 18.087
9.917 8.833 18.001
9.919 8.895 17.922
9.918 8.957 17.848
9.917 9.020 17.773
9.915 9.082 17.715
9.913 9.145 17.673
9.912 9.207 17.622
9.910 9.269 17.567
9.908 9.331 17.523
9.906 9.394 17.493
9.903 9.458 17.474
9.902 9.522 17.448
9.900 9.586 17.424
9.900 9.650 17.400
9.899 9.714 17.389
9.897 9.778 17.360
9.896 9.840 17.333
9.895 9.904 17.309
9.893 9.968 17.280
9.894 10.032 17.252
9.892 10.095 17.223
9.891 10.158 17.195
9.890 10.223 17.173
9.889 10.287 17.149
9.884 10.348 17.114
9.880 10.411 17.078
9.878 10.474 17.046
9.876 10.538 17.024
9.874 10.602 16.994
9.870 10.664 16.962
9.868 10.726 16.920
9.872 10.788 16.862
9.881 10.847 16.772
9.886 10.904 16.638
9.883 10.958 16.486
9.875 11.015 16.335
9.864 11.071 16.193
9.853 11.130 16.078
9.844 11.190 15.999
9.840 11.250 15.928
9.836 11.310 15.859
9.835 11.370 15.791
9.833 11.430 15.722
9.834 11.493 15.664
9.837 11.554 15.613
9.837 11.615 15.565
9.835 11.677 15.510
9.835 11.738 15.459
9.834 11.798 15.413
9.832 11.860 15.368
9.832 11.922 15.326
9.830 11.983 15.279
9.830 12.045 15.229
9.828 12.107 15.191
9.829 12.168 15.147
9.829 12.230 15.103
9.827 12.292 15.073
9.827 12.353 15.036
9.825 12.415 14.999
9.824 12.478 14.977
9.821 12.542 14.961
9.819 12.603 14.946
9.818 12.668 14.944
9.819 12.734 14.955
9.820 12.798 14.968
9.820 12.864 14.983
9.822 12.930 14.999
9.823 12.997 15.022
9.826 13.063 15.057
9.826 13.130 15.093
9.827 13.197 15.129
9.828 13.263 15.167
9.832 13.330 15.213
9.833 13.398 15.265
9.835 13.466 15.325
9.840 13.535 15.387
9.846 13.603 15.462
9.849 13.674 15.540
9.850 13.743 15.613
9.852 13.813 15.685
9.851 13.880 15.753
9.853 13.950 15.818
9.856 14.020 15.897
9.862 14.090 15.978
16.938 9.540 16.656
16.940 9.475 16.656
10.126 6.528 22.472
10.122 6.592 22.385
10.119 6.655 22.301
10.118 6.719 22.236
10.121 6.783 22.184
10.127 6.848 22.143
10.132 6.913 22.129
10.134 6.979 22.105
10.131 7.043 22.071
10.127 7.109 22.026
16.942 9.410 16.658
16.942 9.345 16.657
16.942 9.280 16.660
16.943 9.218 16.666
16.944 9.155 16.679
16.945 9.090 16.698
10.050 7.480 19.833
10.050 7.541 19.728
10.050 7.602 19.629
10.047 7.665 19.544
10.043 7.726 19.462
10.041 7.788 19.381
10.040 7.850 19.308
10.039 7.913 19.241
10.039 7.975 19.177
10.036 8.038 19.107
10.033 8.100 19.041
10.028 8.163 18.968
10.024 8.225 18.890
10.022 8.287 18.813
10.021 8.348 18.740
10.019 8.410 18.669
10.016 8.472 18.587
10.012 8.533 18.500
10.007 8.593 18.410
10.005 8.654 18.324
10.004 8.715 18.234
10.005 8.775 18.144
10.007 8.836 18.053
10.008 8.897 17.968
10.008 8.958 17.889
10.007 9.020 17.812
10.005 9.083 17.748
10.003 9.145 17.703
10.003 9.208 17.649
10.002 9.270 17.597
10.002 9.332 17.553
9.999 9.395 17.513
9.995 9.459 17.488
9.993 9.523 17.461
9.992 9.587 17.440
9.990 9.651 17.421
9.988 9.715 17.406
9.986 9.778 17.378
9.987 9.841 17.355
9.987 9.905 17.333
9.986 9.968 17.307
9.985 10.033 17.277
9.983 10.097 17.253
9.983 10.160 17.233
9.983 10.225 17.218
9.983 10.289 17.203
9.979 10.351 17.171
9.975 10.414 17.137
9.972 10.478 17.109
9.969 10.542 17.089
9.967 10.605 17.061
9.964 10.668 17.033
9.963 10.730 16.990
9.966 10.792 16.931
9.973 10.850 16.829
16.945 9.027 16.728
16.946 8.963 16.768
9.962 11.015 16.324
9.951 11.071 16.186
9.941 11.130 16.077
9.934 11.190 16.007
9.932 11.250 15.945
9.932 11.311 15.884
9.930 11.372 15.820
9.928 11.433 15.753
9.929 11.495 15.698
9.930 11.556 15.648
9.930 11.618 15.602
9.929 11.680 15.549
9.928 11.740 15.500
9.927 11.800 15.458
9.925 11.863 15.413
9.923 11.924 15.355
9.922 11.985 15.298
9.920 12.046 15.240
9.918 12.107 15.193
9.920 12.168 15.146
9.919 12.230 15.101
9.916 12.291 15.067
9.915 12.353 15.033
9.913 12.415 14.994
9.913 12.478 14.969
9.910 12.540 14.948
9.910 12.603 14.932
9.910 12.667 14.920
9.910 12.732 14.916
9.910 12.795 14.921
9.908 12.860 14.931
9.908 12.926 14.942
9.908 12.993 14.961
9.910 13.058 14.997
9.911 13.125 15.028
9.911 13.192 15.064
9.913 13.258 15.110
9.917 13.327 15.159
9.918 13.393 15.195
9.918 13.460 15.249
9.923 13.530 15.306
9.928 13.597 15.366
9.935 13.666 15.438
9.939 13.736 15.517
9.942 13.807 15.600
9.942 13.875 15.669
9.943 13.943 15.726
9.943 14.013 15.797
9.948 14.083 15.878
16.946 8.900 16.807
16.947 8.837 16.846
16.947 8.774 16.885
16.950 8.713 16.941
10.219 6.525 22.407
10.217 6.590 22.340
10.216 6.653 22.268
10.216 6.718 22.208
10.219 6.782 22.166
10.223 6.848 22.136
10.225 6.913 22.124
10.227 6.979 22.103
10.226 7.043 22.069
16.953 8.652 17.003
16.950 8.590 17.066
16.950 8.528 17.141
16.783 13.343 15.520
16.782 13.278 15.505
16.782 13.213 15.490
16.782 13.147 15.469
10.144 7.482 19.864
10.143 7.542 19.765
10.143 7.603 19.668
10.142 7.667 19.587
10.139 7.728 19.511
10.135 7.790 19.432
10.132 7.853 19.363
10.132 7.915 19.301
10.132 7.978 19.242
10.129 8.042 19.179
10.126 8.104 19.108
10.121 8.165 19.032
10.118 8.228 18.952
10.116 8.290 18.873
10.115 8.350 18.797
10.114 8.413 18.726
10.112 8.475 18.647
10.109 8.535 18.562
10.103 8.595 18.471
10.099 8.657 18.382
10.097 8.718 18.292
10.098 8.778 18.203
10.098 8.839 18.116
10.099 8.900 18.026
10.098 8.960 17.941
10.098 9.023 17.862
10.097 9.085 17.791
10.096 9.148 17.736
10.094 9.210 17.669
10.093 9.272 17.615
10.093 9.333 17.575
10.092 9.396 17.531
10.088 9.460 17.504
10.085 9.523 17.477
10.084 9.588 17.458
10.082 9.652 17.438
10.080 9.716 17.421
10.078 9.779 17.393
10.080 9.842 17.375
10.080 9.906 17.355
10.079 9.970 17.336
10.077 10.034 17.307
10.076 10.098 17.284
10.077 10.163 17.268
10.075 10.227 17.257
10.075 10.292 17.244
10.073 10.353 17.216
10.070 10.417 17.189
10.066 10.481 17.167
10.063 10.545 17.144
10.063 10.608 17.118
10.061 10.672 17.095
10.060 10.733 17.057
10.061 10.794 16.985
16.780 13.081 15.453
16.780 13.015 15.435
16.780 12.950 15.421
10.048 11.015 16.320
10.040 11.071 16.194
10.033 11.131 16.104
10.030 11.192 16.041
10.028 11.253 15.978
10.027 11.313 15.915
10.026 11.375 15.856
10.023 11.435 15.795
10.024 11.497 15.740
10.023 11.558 15.686
10.023 11.620 15.636
10.023 11.683 15.591
10.022 11.744 15.549
10.020 11.803 15.501
10.019 11.865 15.448
10.015 11.925 15.381
10.013 11.986 15.318
10.011 12.047 15.259
10.010 12.108 15.208
10.010 12.169 15.156
10.008 12.230 15.108
10.005 12.291 15.070
10.005 12.353 15.033
10.003 12.415 14.993
10.002 12.477 14.961
10.001 12.540 14.930
10.002 12.602 14.914
10.002 12.665 14.894
10.000 12.730 14.875
9.999 12.793 14.873
9.997 12.858 14.879
9.996 12.923 14.893
9.997 12.989 14.913
9.998 13.055 14.945
9.999 13.120 14.966
10.000 13.187 14.999
10.001 13.253 15.043
10.003 13.322 15.092
10.004 13.388 15.120
10.004 13.455 15.170
10.006 13.524 15.224
10.011 13.591 15.279
10.020 13.660 15.353
10.026 13.730 15.424
10.030 13.800 15.502
10.032 13.868 15.575
10.032 13.937 15.639
10.031 14.006 15.709
10.033 14.077 15.789
10.037 14.148 15.872
16.778 12.885 15.402
16.775 12.820 15.389
16.775 12.755 15.379
10.314 6.462 22.433
10.313 6.524 22.358
10.310 6.589 22.304
10.310 6.653 22.247
10.311 6.717 22.194
10.314 6.781 22.156
10.317 6.847 22.129
10.318 6.913 22.117
10.320 6.979 22.098
10.321 7.043 22.060
16.774 12.690 15.372
16.774 12.625 15.358
16.773 12.560 15.352
16.770 12.495 15.342
16.768 12.430 15.326
16.768 12.365 15.314
10.238 7.422 19.988
10.238 7.483 19.885
10.236 7.543 19.795
10.234 7.605 19.700
10.232 7.668 19.623
10.232 7.730 19.558
10.229 7.793 19.486
10.227 7.855 19.422
10.226 7.918 19.356
10.224 7.980 19.292
10.221 8.043 19.235
10.218 8.107 19.163
10.215 8.168 19.089
10.213 8.230 19.012
10.210 8.292 18.931
10.208 8.353 18.849
10.208 8.415 18.777
10.206 8.477 18.701
10.204 8.538 18.619
10.200 8.598 18.533
10.195 8.660 18.449
10.191 8.720 18.359
10.190 8.781 18.266
10.188 8.842 18.174
10.188 8.903 18.072
10.188 8.963 17.982
10.190 9.025 17.906
10.190 9.088 17.834
10.190 9.149 17.773
10.187 9.211 17.697
10.185 9.273 17.639
10.183 9.335 17.602
10.184 9.398 17.563
10.182 9.462 17.536
10.178 9.525 17.503
10.175 9.588 17.476
10.173 9.653 17.454
10.172 9.717 17.436
10.171 9.780 17.406
10.172 9.843 17.386
10.172 9.907 17.367
10.170 9.971 17.355
10.169 10.035 17.335
10.170 10.100 17.318
10.170 10.164 17.298
10.168 10.228 17.284
10.168 10.293 17.273
10.167 10.355 17.253
10.165 10.420 17.238
10.164 10.484 17.226
10.161 10.548 17.201
10.160 10.610 17.173
10.159 10.675 17.149
10.158 10.737 17.112
10.158 10.797 17.033
16.768 12.300 15.301
16.769 12.235 15.279
16.769 12.169 15.264
10.135 11.015 16.327
10.129 11.073 16.208
10.126 11.133 16.127
10.124 11.194 16.065
10.121 11.255 16.003
10.118 11.315 15.943
10.118 11.377 15.894
10.118 11.438 15.843
10.118 11.500 15.789
10.117 11.561 15.736
10.116 11.623 15.683
10.115 11.685 15.634
10.114 11.747 15.593
10.113 11.806 15.536
10.112 11.867 15.477
10.108 11.927 15.411
10.105 11.988 15.346
10.104 12.049 15.288
10.101 12.108 15.230
10.100 12.170 15.169
10.098 12.230 15.117
10.096 12.292 15.076
10.095 12.353 15.031
10.094 12.415 14.991
10.093 12.476 14.952
10.091 12.539 14.914
10.091 12.600 14.887
10.091 12.663 14.865
10.090 12.727 14.842
10.088 12.789 14.829
10.086 12.855 14.837
10.085 12.920 14.853
10.086 12.985 14.870
10.087 13.050 14.896
10.088 13.116 14.911
10.089 13.183 14.938
10.090 13.248 14.975
10.091 13.317 15.021
10.093 13.383 15.050
10.093 13.450 15.096
10.093 13.519 15.148
10.098 13.585 15.199
10.104 13.654 15.265
10.109 13.723 15.327
10.115 13.792 15.403
10.119 13.861 15.482
10.120 13.930 15.551
10.118 14.000 15.621
10.118 14.070 15.694
10.122 14.140 15.775
16.768 12.103 15.252
16.769 12.040 15.246
16.769 11.975 15.243
16.767 11.910 15.236
16.765 11.845 15.227
16.765 11.780 15.221
16.765 11.717 15.220
10.411 6.397 22.496
10.409 6.460 22.414
10.407 6.523 22.340
10.403 6.588 22.286
10.402 6.653 22.236
10.405 6.718 22.193
10.408 6.782 22.161
10.411 6.848 22.138
10.414 6.913 22.122
10.415 6.979 22.099
10.415 7.043 22.060
16.766 11.652 15.221
16.765 11.588 15.219
16.765 11.524 15.214
16.764 11.459 15.212
16.763 11.393 15.208
16.765 11.330 15.213
10.334 7.423 20.014
10.335 7.484 19.924
10.333 7.545 19.846
10.330 7.608 19.758
10.328 7.670 19.685
10.328 7.733 19.621
10.325 7.795 19.550
10.324 7.858 19.483
10.322 7.920 19.414
10.318 7.983 19.345
10.315 8.045 19.288
10.313 8.109 19.222
10.310 8.170 19.151
10.309 8.233 19.074
10.306 8.295 18.998
10.305 8.355 18.918
10.303 8.418 18.843
10.301 8.480 18.768
10.300 8.541 18.686
10.296 8.602 18.599
10.290 8.663 18.515
10.285 8.724 18.426
10.283 8.785 18.331
10.283 8.845 18.232
10.282 8.905 18.123
10.281 8.965 18.028
10.284 9.028 17.950
10.284 9.089 17.870
10.283 9.151 17.800
10.279 9.212 17.724
10.275 9.274 17.665
10.273 9.336 17.623
10.273 9.399 17.585
10.272 9.463 17.559
10.269 9.527 17.531
10.267 9.590 17.502
10.265 9.653 17.474
10.265 9.717 17.457
10.263 9.781 17.429
10.263 9.844 17.408
10.263 9.908 17.392
10.261 9.972 17.378
10.262 10.038 17.362
10.264 10.102 17.348
10.263 10.166 17.328
10.261 10.230 17.312
10.262 10.294 17.298
10.262 10.358 17.283
10.260 10.422 17.273
10.260 10.486 17.264
10.258 10.550 17.245
10.257 10.613 17.221
10.255 10.677 17.191
10.254 10.738 17.146
10.253 10.798 17.063
16.767 11.266 15.219
16.767 11.202 15.221
16.767 11.138 15.221
10.220 11.015 16.343
10.217 11.073 16.229
10.215 11.134 16.154
10.213 11.196 16.098
10.212 11.257 16.046
10.211 11.318 15.995
10.212 11.380 15.950
10.212 11.441 15.903
10.212 11.503 15.856
10.212 11.564 15.799
10.210 11.626 15.738
10.208 11.687 15.679
10.206 11.749 15.632
10.205 11.808 15.578
10.203 11.869 15.514
10.200 11.928 15.445
10.198 11.989 15.378
10.197 12.050 15.322
10.195 12.110 15.263
10.194 12.172 15.195
10.191 12.231 15.137
10.188 12.292 15.085
10.187 12.353 15.032
10.185 12.414 14.991
10.183 12.475 14.945
10.182 12.538 14.900
10.182 12.598 14.865
10.181 12.662 14.839
10.180 12.725 14.813
10.179 12.788 14.799
10.177 12.852 14.802
10.177 12.917 14.806
10.177 12.983 14.817
10.176 13.047 14.840
10.177 13.113 14.859
10.178 13.179 14.882
10.180 13.245 14.913
10.182 13.312 14.958
10.183 13.378 14.987
10.182 13.445 15.028
10.183 13.513 15.071
10.184 13.578 15.114
10.188 13.648 15.177
10.193 13.716 15.239
10.199 13.785 15.312
10.204 13.854 15.391
10.207 13.923 15.452
10.206 13.993 15.522
10.206 14.063 15.596
10.208 14.133 15.672
10.212 14.203 15.748
16.766 11.073 15.216
16.765 11.008 15.216
16.765 10.945 15.218
16.763 10.880 15.228
10.510 6.141 22.778
10.512 6.205 22.698
10.510 6.268 22.622
10.508 6.332 22.542
