# .PCD v0.7 - Point Cloud Data file format
VERSION 0.7
FIELDS x y z
SIZE 4 4 4
TYPE F F F
COUNT 1 1 1
WIDTH 1592
HEIGHT 1
VIEWPOINT 0 0 0 1 0 0 0
POINTS 1592
DATA ascii
0.0071209 0.0327598 0.0057198
0.0071202 0.0327083 0.005758
0.0071186 0.0326556 0.0057981
0.0071184 0.0324918 0.0059246
0.0071197 0.0324371 0.005969
0.0071211 0.0325455 0.0058836
0.0071218 0.0325996 0.0058415
0.007123 0.0323818 0.0060156
0.0071221 0.0322734 0.006104
0.0071232 0.0323264 0.0060608
0.0071219 0.032219 0.0061502
0.0071227 0.0321647 0.006199
0.0071279 0.0321101 0.0062522
0.0071381 0.0319965 0.006377
0.007134 0.0320532 0.0063129
0.0071354 0.0392225 -0.0012014
0.0071451 0.03194 0.0064446
0.007137 0.0391627 -0.0011988
0.007135 0.0392823 -0.0012031
0.0071368 0.0391054 -0.001195
0.0071354 0.039342 -0.0012039
0.0071387 0.039046 -0.0011904
0.0071393 0.0388711 -0.0011701
0.0071398 0.0385835 -0.0011167
0.0071404 0.0386975 -0.0011407
0.0071394 0.0388134 -0.001161
0.0071408 0.0389871 -0.0011852
0.0071405 0.0386408 -0.0011293
0.0071406 0.0387558 -0.0011514
0.0071407 0.0389286 -0.0011783
0.0071421 0.0385272 -0.0011042
0.0071428 0.03847 -0.0010907
0.0071439 0.038355 -0.0010608
0.007143 0.0384123 -0.0010762
0.0071438 0.0382995 -0.0010451
0.0071453 0.0382437 -0.0010287
0.0071437 0.0381303 -0.0009915
0.0071447 0.0381871 -0.0010107
0.0071434 0.0380738 -0.000972
0.0071457 0.0379621 -0.0009318
0.0071451 0.0380184 -0.0009524
0.0071461 0.037796 -0.0008651
0.007147 0.037907 -0.0009108
0.0071473 0.0378526 -0.000889
0.0071481 0.037742 -0.0008416
0.0071494 0.0376875 -0.0008165
0.0071496 0.0375769 -0.0007617
0.0071503 0.0376325 -0.0007903
0.00715 0.0375215 -0.0007321
0.0071516 0.0374132 -0.0006692
0.0071517 0.0374679 -0.0007014
0.0071523 0.0373603 -0.000636
0.0071526 0.0373083 -0.0006012
0.007154 0.0372563 -0.000564
0.007157 0.0372046 -0.0005241
0.0071573 0.0371531 -0.0004813
0.0071574 0.0371014 -0.0004354
0.0071583 0.0370495 -0.0003863
0.0071603 0.0369999 -0.0003355
0.0071607 0.0369501 -0.0002803
0.0071612 0.0369019 -0.0002223
0.0071634 0.036854 -0.0001593
0.007165 0.0368058 -8.75E-05
0.0071645 0.0367554 -4.5E-06
0.0071649 0.0367082 8.39E-05
0.0071784 0.0361787 0.0039153
0.0071792 0.0362329 0.0038924
0.0071812 0.036289 0.0038698
0.0071706 0.0365918 0.0037278
0.0071802 0.0361232 0.0039399
0.0071817 0.0363487 0.0038449
0.0071729 0.0350123 0.0044661
0.0071746 0.0350661 0.0044391
0.0071758 0.0351211 0.0044105
0.0071823 0.0360672 0.0039647
0.0071747 0.0349556 0.004496
0.0071818 0.0364102 0.0038186
0.0071768 0.0365311 0.0037596
0.0071781 0.0351732 0.0043835
0.00718 0.036472 0.0037895
0.0071854 0.0360106 0.0039871
0.0071858 0.035784 0.0040837
0.0071782 0.0348998 0.0045246
0.0071808 0.0352306 0.0043538
0.0071847 0.0357301 0.0041078
0.0071799 0.034788 0.0045806
0.0071882 0.0358407 0.0040581
0.0071803 0.0348427 0.0045528
0.0071826 0.0352873 0.0043234
0.00719 0.0359531 0.0040106
0.0071883 0.0356718 0.0041336
0.0071896 0.0358969 0.0040345
0.0071826 0.0347282 0.0046096
0.0071846 0.0353413 0.0042939
0.0071877 0.0353925 0.0042672
0.0071892 0.0354457 0.0042396
0.0071894 0.0355025 0.0042122
0.0071849 0.0346699 0.0046385
0.0071909 0.035615 0.004159
0.0071912 0.0355576 0.0041854
0.0071872 0.0346113 0.0046672
0.0071883 0.0344964 0.0047245
0.0071874 0.0343884 0.0047784
0.0071893 0.0345521 0.0046965
0.0071874 0.0343327 0.0048063
0.0071886 0.0344424 0.0047517
0.0071892 0.0342757 0.0048353
0.0071903 0.0342178 0.0048644
0.0071924 0.0341591 0.0048944
0.0071924 0.034104 0.004923
0.0071921 0.0340498 0.0049501
0.0071934 0.0339948 0.0049787
0.0071939 0.033939 0.0050067
0.0071958 0.0338811 0.005036
0.0071979 0.0335403 0.0052253
0.0071975 0.0334853 0.0052591
0.0071995 0.0336502 0.0051612
0.0072007 0.0335934 0.0051941
0.0071981 0.0334313 0.0052923
0.0071994 0.0337084 0.0051292
0.0071994 0.033765 0.0050983
0.0071993 0.0338218 0.0050673
0.0071984 0.0333226 0.0053615
0.0072005 0.0333764 0.0053272
0.0071992 0.0332676 0.0053979
0.0072017 0.0332115 0.0054359
0.0072033 0.0329881 0.0055874
0.0072029 0.0331545 0.0054737
0.0072017 0.0330469 0.0055469
0.0072073 0.0329284 0.0056312
0.0072033 0.0331001 0.0055108
0.0072066 0.0328194 0.0057117
0.0072094 0.0328727 0.0056717
0.0072058 0.0327666 0.0057511
0.0072054 0.0327148 0.0057903
0.0072058 0.0326611 0.0058326
0.0072077 0.0324973 0.0059686
0.0072084 0.0325513 0.0059243
0.0072094 0.0326061 0.0058792
0.0072115 0.0324422 0.0060162
0.0072126 0.0322787 0.006154
0.0072135 0.0323315 0.0061101
0.0072151 0.0323863 0.006065
0.0072132 0.0322256 0.0061996
0.0072127 0.0321716 0.0062476
0.0072158 0.0392784 -0.0012225
0.0072166 0.0392184 -0.0012208
0.007218 0.0391593 -0.001218
0.0072162 0.0393385 -0.0012236
0.007215 0.032118 0.0062981
0.0072176 0.039102 -0.001214
0.0072191 0.0390424 -0.0012093
0.0072207 0.0320612 0.0063571
0.0072238 0.0320061 0.0064179
0.007221 0.0389834 -0.0012037
0.0072227 0.0385799 -0.0011345
0.007222 0.0386939 -0.0011586
0.0072229 0.0386378 -0.0011472
0.0072225 0.0388683 -0.0011891
0.0072225 0.0389255 -0.0011971
0.0072246 0.0385228 -0.0011216
0.0072226 0.038752 -0.0011698
0.0072226 0.0388102 -0.0011799
0.0072293 0.0319517 0.0064841
0.0072248 0.0384665 -0.0011078
0.0072265 0.0384092 -0.0010933
0.0072286 0.0382407 -0.001045
0.007228 0.0382963 -0.0010619
0.0072277 0.0383516 -0.0010777
0.0072284 0.0381843 -0.0010268
0.0072284 0.0381284 -0.0010078
0.0072284 0.0377951 -0.0008778
0.0072291 0.03774 -0.0008529
0.0072296 0.0378513 -0.0009022
0.0072289 0.038071 -0.0009874
0.007231 0.0379056 -0.0009249
0.0072312 0.0379607 -0.0009467
0.0072302 0.0380156 -0.0009674
0.007231 0.0376843 -0.0008268
0.0072326 0.0374097 -0.0006756
0.0072331 0.0375744 -0.0007714
0.0072334 0.0376292 -0.0008001
0.0072336 0.0375193 -0.0007411
0.007234 0.0374648 -0.0007089
0.0072346 0.0373586 -0.0006431
0.007237 0.0373094 -0.0006097
0.0072385 0.0372585 -0.000573
0.0072405 0.0372052 -0.0005316
0.0072402 0.0371513 -0.0004862
0.0072402 0.0370989 -0.0004391
0.0072417 0.0370479 -0.0003901
0.0072442 0.0369984 -0.0003396
0.0072452 0.0369506 -0.0002866
0.0072461 0.0369026 -0.0002296
0.007248 0.0368554 -0.0001678
0.0072487 0.0368068 -9.69E-05
0.0072495 0.0367562 -1.39E-05
0.0072507 0.0367066 7.79E-05
0.0072506 0.0366588 0.0001806
0.0072593 0.0350666 0.0044297
0.007259 0.0351244 0.0044008
0.0072589 0.0365942 0.0037327
0.0072608 0.0350096 0.0044587
0.0072609 0.0351779 0.0043737
0.0072625 0.0352342 0.0043452
0.0072626 0.0352905 0.0043165
0.0072634 0.0349509 0.0044874
0.0072636 0.0353448 0.0042885
0.0072661 0.0355103 0.0042083
0.0072639 0.0365361 0.0037676
0.0072667 0.0353981 0.0042624
0.0072672 0.0354525 0.0042355
0.0072695 0.0357332 0.0041117
0.0072679 0.0355654 0.0041846
0.0072681 0.0356227 0.0041601
0.0072688 0.0356778 0.0041352
0.0072662 0.0348949 0.0045157
0.0072722 0.0357882 0.0040895
0.007267 0.0347835 0.0045726
0.0072687 0.0347246 0.0046029
0.0072681 0.0348382 0.004544
0.007273 0.0361886 0.003931
0.0072741 0.0362422 0.0039082
0.0072691 0.0364795 0.0037981
0.0072701 0.0346674 0.0046321
0.0072707 0.0346108 0.0046616
0.0072713 0.0344984 0.0047199
0.0072719 0.0345526 0.0046915
0.007277 0.0362981 0.0038835
0.0072761 0.0361319 0.0039555
0.0072764 0.0358472 0.0040667
0.0072738 0.0364202 0.0038276
0.0072763 0.0363586 0.003857
0.0072726 0.0344438 0.0047477
0.0072733 0.0343875 0.0047767
0.0072785 0.0359045 0.004045
0.0072783 0.0360759 0.0039776
0.0072786 0.0359634 0.0040224
0.0072781 0.0360207 0.004
0.0072747 0.034331 0.0048058
0.0072767 0.0342733 0.0048353
0.0072775 0.0342162 0.0048648
0.0072788 0.0341591 0.0048944
0.0072773 0.0340516 0.0049499
0.0072785 0.0341056 0.0049222
0.0072787 0.0339938 0.00498
0.0072795 0.0339379 0.0050095
0.0072841 0.0336517 0.005171
0.0072832 0.0335426 0.0052378
0.0072849 0.0335951 0.0052059
0.0072834 0.0337095 0.005137
0.007282 0.033881 0.0050401
0.0072846 0.0337649 0.0051055
0.0072843 0.0334869 0.0052732
0.0072849 0.0338229 0.0050728
0.0072858 0.0334327 0.0053082
0.0072862 0.0333261 0.0053799
0.0072881 0.0333785 0.0053448
0.0072885 0.0329943 0.0056168
0.0072873 0.0332726 0.0054171
0.0072881 0.0330518 0.0055742
0.0072903 0.0331588 0.0054975
0.0072925 0.0329362 0.0056626
0.00729 0.0332152 0.0054578
0.0072901 0.033104 0.0055366
0.0072921 0.0327199 0.005833
0.0072925 0.0327737 0.0057905
0.0072946 0.0328264 0.0057482
0.0072937 0.0326653 0.0058797
0.0072976 0.0328799 0.0057081
0.0072924 0.0325591 0.0059695
0.0072947 0.0326122 0.0059247
0.007294 0.0325044 0.0060181
0.0072991 0.0324506 0.0060684
0.0073027 0.0393334 -0.0012431
0.0073013 0.0390984 -0.0012328
0.0073032 0.0392747 -0.0012422
0.0073016 0.039039 -0.0012277
0.0073029 0.0389801 -0.0012218
0.0073028 0.0391567 -0.0012371
0.007304 0.0392153 -0.0012404
0.0073038 0.0323941 0.0061194
0.0073038 0.0323391 0.0061667
0.0073045 0.0388648 -0.0012065
0.0073032 0.0322859 0.0062113
0.0073045 0.038922 -0.0012148
0.0073045 0.0321768 0.0063091
0.0073071 0.0385777 -0.0011516
0.0073066 0.0386355 -0.0011643
0.0073046 0.0322322 0.0062596
0.0073037 0.0321249 0.0063568
0.0073076 0.0386911 -0.0011762
0.0073063 0.0388066 -0.0011974
0.0073073 0.0384633 -0.0011236
0.0073088 0.0385204 -0.0011382
0.0073074 0.0387482 -0.0011873
0.0073055 0.0320711 0.0064092
0.0073083 0.0384062 -0.0011088
0.0073078 0.0320162 0.0064651
0.0073094 0.038238 -0.0010594
0.0073103 0.0382937 -0.001077
0.0073099 0.0383493 -0.0010932
0.0073107 0.0381811 -0.0010407
0.0073118 0.0319642 0.00653
0.0073125 0.0381256 -0.0010218
0.0073135 0.0380681 -0.0010012
0.0073153 0.0377943 -0.0008893
0.0073151 0.0378483 -0.0009135
0.0073154 0.0379025 -0.0009366
0.0073147 0.0379573 -0.0009588
0.0073138 0.0380119 -0.0009801
0.0073157 0.0377398 -0.0008641
0.0073175 0.037685 -0.0008373
0.0073167 0.03741 -0.0006825
0.0073177 0.0373589 -0.0006489
0.0073177 0.0374657 -0.0007168
0.0073182 0.0376293 -0.0008095
0.0073182 0.0375205 -0.0007497
0.0073193 0.0373088 -0.0006143
0.0073193 0.0375745 -0.0007803
0.0073211 0.0372571 -0.0005768
0.0073228 0.0372025 -0.0005338
0.0073233 0.0370999 -0.0004432
0.007323 0.0371489 -0.0004879
0.0073243 0.0370508 -0.000396
0.0073261 0.0370001 -0.0003443
0.0073284 0.0369515 -0.0002906
0.0073303 0.0369022 -0.000232
0.0073324 0.036854 -0.0001692
0.0073327 0.036805 -9.83E-05
0.0073328 0.036757 -2.05E-05
0.0073343 0.0366594 0.0001735
0.0073346 0.0367078 7.08E-05
0.007346 0.035006 0.0044517
0.0073464 0.0349484 0.0044799
0.0073471 0.0350621 0.0044232
0.0073466 0.0351207 0.0043941
0.007346 0.0351781 0.0043644
0.0073456 0.0352373 0.0043363
0.0073455 0.0352943 0.0043089
0.0073459 0.0353494 0.0042834
0.0073501 0.0362521 0.0039127
0.0073486 0.0365364 0.0037714
0.0073491 0.0348931 0.0045077
0.0073504 0.0356263 0.0041605
0.0073517 0.0357963 0.0040934
0.0073513 0.0358547 0.0040716
0.0073494 0.0354025 0.0042576
0.0073502 0.0359146 0.0040492
0.0073521 0.0363086 0.0038878
0.0073506 0.035457 0.0042331
0.0073503 0.0355161 0.0042074
0.0073507 0.0355713 0.0041829
0.0073528 0.0356804 0.004138
0.007349 0.0359778 0.0040283
0.0073536 0.0357375 0.0041156
0.0073516 0.0364803 0.0038022
0.007352 0.0361987 0.0039361
0.0073521 0.0348367 0.0045366
0.0073543 0.0363677 0.0038609
0.0073539 0.0364252 0.0038313
0.0073525 0.0360332 0.0040058
0.0073547 0.0347798 0.0045666
0.0073548 0.0361433 0.0039603
0.0073569 0.0347217 0.0045975
0.0073551 0.0360881 0.0039838
0.0073576 0.0346089 0.0046583
0.0073577 0.0345535 0.004688
0.0073579 0.0346651 0.0046282
0.0073575 0.0344997 0.0047169
0.0073595 0.0344442 0.0047459
0.0073622 0.0343867 0.004776
0.0073634 0.0342163 0.0048662
0.0073633 0.0342727 0.0048361
0.0073644 0.0343285 0.0048061
0.0073647 0.0341604 0.0048957
0.0073659 0.034106 0.0049252
0.0073676 0.0339919 0.0049864
0.0073671 0.0340504 0.0049546
0.0073686 0.0339369 0.0050166
0.0073684 0.0336579 0.0051817
0.0073696 0.0335456 0.0052528
0.0073698 0.0336005 0.005218
0.0073684 0.0337148 0.0051472
0.0073711 0.0334888 0.0052908
0.0073707 0.0337695 0.0051145
0.0073705 0.0338823 0.0050477
0.0073727 0.033434 0.0053283
0.0073717 0.0338267 0.0050806
0.0073762 0.0333802 0.0053669
0.0073763 0.0333272 0.0054052
0.0073775 0.032998 0.0056565
0.0073763 0.0332744 0.0054437
0.0073773 0.0331638 0.005527
0.0073794 0.0329431 0.005702
0.0073776 0.0332184 0.0054859
0.0073783 0.0330551 0.0056114
0.007378 0.0331092 0.0055687
0.0073791 0.0327287 0.0058824
0.0073792 0.0327818 0.0058362
0.0073813 0.032835 0.0057926
0.0073842 0.032888 0.0057503
0.0073828 0.0326727 0.0059337
0.0073807 0.0325682 0.0060274
0.0073834 0.0326202 0.0059819
0.0073805 0.0325148 0.0060749
0.0073895 0.0393293 -0.0012616
0.0073838 0.0324615 0.0061245
0.0073875 0.0390369 -0.001245
0.0073903 0.0392708 -0.0012604
0.0073886 0.0389779 -0.0012391
0.0073877 0.0390953 -0.0012502
0.0073901 0.0386315 -0.0011798
0.00739 0.0391532 -0.0012548
0.0073895 0.0324049 0.006179
0.0073912 0.0384028 -0.0011231
0.00739 0.0388604 -0.0012233
0.00739 0.0389182 -0.0012318
0.0073913 0.039212 -0.0012583
0.0073908 0.0385747 -0.0011669
0.0073917 0.0386872 -0.0011921
0.0073914 0.0387449 -0.0012034
0.0073905 0.0388026 -0.0012136
0.0073912 0.03846 -0.0011385
0.0073932 0.0382351 -0.0010728
0.0073923 0.0323493 0.00623
0.0073926 0.0385176 -0.0011535
0.0073917 0.0322965 0.0062753
0.0073934 0.038346 -0.0011073
0.0073929 0.0321875 0.006372
0.0073919 0.0322428 0.0063223
0.0073947 0.0381781 -0.0010538
0.007394 0.0382908 -0.0010908
0.0073925 0.0321348 0.0064202
0.0073957 0.038123 -0.0010345
0.0073928 0.0320821 0.0064703
0.007394 0.0320273 0.0065256
0.0073974 0.0380107 -0.0009923
0.0073971 0.0380665 -0.0010138
0.0073983 0.0379563 -0.0009706
0.0073991 0.0379019 -0.0009478
0.0073997 0.0378461 -0.0009232
0.0074001 0.0377917 -0.0008983
0.0073981 0.0319749 0.0065876
0.0074008 0.0377376 -0.0008723
0.0074011 0.0376266 -0.0008152
0.0074016 0.0376829 -0.0008447
0.0074025 0.0374108 -0.0006876
0.0074022 0.0374627 -0.0007205
0.0074026 0.0375184 -0.0007543
0.0074034 0.03736 -0.0006535
0.0074034 0.0375725 -0.0007857
0.007405 0.0373095 -0.0006177
0.0074064 0.0372572 -0.0005795
0.0074078 0.0372024 -0.0005354
0.0074092 0.0371482 -0.0004891
0.0074096 0.037098 -0.0004428
0.0074102 0.0370487 -0.0003948
0.0074107 0.037 -0.0003442
0.0074127 0.0369522 -0.0002919
0.0074136 0.0369032 -0.0002336
0.0074158 0.0368544 -0.0001702
0.0074163 0.036757 -2.25E-05
0.0074171 0.0368055 -0.0001005
0.0074179 0.0366615 0.0001656
0.0074186 0.0367085 6.62E-05
0.0074212 0.0353523 0.0042783
0.0074219 0.0352971 0.0043042
0.0074216 0.0359269 0.0040525
0.0074233 0.0358666 0.0040734
0.0074235 0.0354074 0.0042546
0.0074229 0.0352406 0.00433
0.0074224 0.035986 0.0040309
0.0074279 0.036256 0.0039162
0.0074286 0.036312 0.0038893
0.0074291 0.0365335 0.0037688
0.0074261 0.0354629 0.0042294
0.0074298 0.0364779 0.0038026
0.0074272 0.0356346 0.0041591
0.0074275 0.0358077 0.0040953
0.0074273 0.0351806 0.0043581
0.0074265 0.0360399 0.0040093
0.0074273 0.035522 0.0042042
0.0074273 0.0355785 0.0041813
0.0074305 0.0364251 0.0038326
0.0074295 0.0356899 0.0041363
0.0074306 0.0362026 0.0039402
0.0074309 0.0363705 0.0038603
0.0074309 0.0357469 0.0041138
0.0074298 0.0360933 0.0039867
0.0074321 0.0349482 0.0044737
0.0074323 0.0350059 0.0044438
0.0074315 0.0351211 0.0043869
0.0074316 0.0361489 0.0039631
0.0074332 0.0348918 0.0045027
0.0074328 0.0350628 0.0044158
0.0074361 0.0348345 0.0045326
0.0074405 0.0347769 0.004563
0.0074418 0.0347203 0.004594
0.0074433 0.0346068 0.0046573
0.0074437 0.0346634 0.0046256
0.0074441 0.0345522 0.0046875
0.0074451 0.0344981 0.0047174
0.0074465 0.0344437 0.0047465
0.0074487 0.0343877 0.0047767
0.0074498 0.0342171 0.0048703
0.0074494 0.0341621 0.0049002
0.0074507 0.0342732 0.0048401
0.0074496 0.0341073 0.0049303
0.0074516 0.0343288 0.0048095
0.0074524 0.034051 0.0049618
0.0074539 0.0339933 0.0049947
0.0074505 0.0336656 0.0051944
0.0074514 0.0337212 0.0051587
0.007454 0.0339388 0.0050265
0.0074525 0.0337754 0.0051244
0.0074525 0.0338319 0.0050897
0.0074538 0.0338858 0.0050575
0.0074535 0.0336077 0.0052335
0.0074551 0.0335513 0.0052713
0.0074568 0.0334953 0.0053105
0.0074579 0.0334404 0.00535
0.0074599 0.0333864 0.0053907
0.0074592 0.0332801 0.0054724
0.0074602 0.0333325 0.0054323
0.0074592 0.0332251 0.0055158
0.0074614 0.0331706 0.0055609
0.0074633 0.033116 0.005607
0.007465 0.0330621 0.005653
0.0074666 0.0330066 0.0057014
0.0074677 0.0329516 0.0057502
0.0074693 0.0327366 0.0059462
0.007469 0.0327899 0.0058965
0.0074693 0.0328433 0.0058479
0.0074697 0.032897 0.0057999
0.0074757 0.0393262 -0.0012783
0.0074733 0.0326806 0.0060011
0.0074739 0.0389743 -0.0012546
0.0074735 0.0390332 -0.0012608
0.0074755 0.0392674 -0.0012764
0.0074719 0.0325759 0.006098
0.0074736 0.039092 -0.0012662
0.0074748 0.0326284 0.0060522
0.0074708 0.0325234 0.0061446
0.0074749 0.0386282 -0.0011947
0.007475 0.0389157 -0.0012473
0.0074751 0.0391495 -0.0012706
0.0074753 0.0392084 -0.001274
0.0074742 0.0385711 -0.0011812
0.0074756 0.0388001 -0.0012291
0.0074754 0.0388579 -0.0012388
0.0074772 0.0387421 -0.0012188
0.0074725 0.0324706 0.0061955
0.007477 0.0386842 -0.0012073
0.0074741 0.0324158 0.0062462
0.0074756 0.0383993 -0.0011363
0.0074755 0.0384562 -0.0011521
0.007476 0.0385142 -0.0011675
0.0074772 0.0382311 -0.0010849
0.0074762 0.0323611 0.0062968
0.0074772 0.0382873 -0.0011032
0.007477 0.0383426 -0.0011201
0.0074782 0.0381744 -0.0010654
0.0074769 0.0323083 0.006344
0.0074792 0.0381191 -0.0010454
0.0074758 0.0322545 0.0063891
0.0074804 0.0380078 -0.0010023
0.0074805 0.0380633 -0.0010244
0.0074817 0.037953 -0.0009798
0.0074772 0.0322005 0.0064394
0.0074822 0.0378981 -0.0009559
0.0074824 0.0378429 -0.0009307
0.0074775 0.0321469 0.0064884
0.0074833 0.0377893 -0.0009052
0.0074848 0.0376832 -0.0008514
0.0074848 0.0377365 -0.000879
0.0074852 0.0376277 -0.0008215
0.0074797 0.0320928 0.0065398
0.0074864 0.0375734 -0.0007909
0.0074817 0.0320384 0.0065972
0.0074875 0.0375178 -0.0007582
0.0074858 0.0319851 0.0066558
0.0074895 0.0373586 -0.0006544
0.0074894 0.0374112 -0.0006907
0.0074889 0.0374614 -0.0007234
0.0074901 0.0373064 -0.0006172
0.0074923 0.0372532 -0.000577
0.0074935 0.0372014 -0.0005343
0.007495 0.0371497 -0.0004896
0.0074959 0.0370008 -0.0003434
0.0074958 0.0371001 -0.0004436
0.0074968 0.0370495 -0.0003939
0.0074975 0.0369525 -0.0002904
0.007498 0.0369017 -0.0002293
0.0075001 0.036852 -0.0001653
0.007501 0.0367572 -2.18E-05
0.0075023 0.0368054 -9.88E-05
0.0075024 0.0366618 0.0001636
0.0075024 0.0367082 6.67E-05
0.0075065 0.0362581 0.0039104
0.007506 0.036204 0.0039357
0.0075076 0.0363126 0.0038847
0.0075053 0.0361521 0.0039607
0.0075047 0.0360977 0.0039848
0.0075027 0.0358763 0.0040756
0.0075048 0.0360446 0.0040075
0.0075029 0.0359352 0.004053
0.0075096 0.0363697 0.0038536
0.0075106 0.0364234 0.0038236
0.0075049 0.0359908 0.004031
0.0075129 0.0364749 0.0037937
0.0075072 0.0358153 0.0040996
0.007508 0.035297 0.0042984
0.007515 0.036526 0.0037603
0.0075084 0.0352401 0.0043243
0.007508 0.0354109 0.0042475
0.0075079 0.0353539 0.0042731
0.0075086 0.0354692 0.004224
0.0075097 0.0355256 0.0041997
0.0075113 0.0355789 0.0041803
0.0075113 0.0357548 0.0041205
0.007514 0.0356337 0.0041584
0.0075141 0.0356924 0.0041389
0.0075139 0.0351801 0.0043523
0.0075187 0.0350636 0.004409
0.0075187 0.035121 0.0043807
0.0075216 0.0348909 0.0044992
0.0075206 0.0350057 0.0044395
0.0075218 0.0349475 0.0044699
0.0075235 0.0348337 0.0045299
0.0075269 0.0347786 0.0045603
0.007528 0.0347221 0.0045928
0.0075307 0.0346081 0.0046581
0.0075305 0.0346644 0.004626
0.0075304 0.034554 0.0046889
0.0075302 0.0344987 0.0047198
0.00753 0.034444 0.0047506
0.007531 0.03439 0.004781
0.0075348 0.0343319 0.004814
0.007535 0.0341644 0.004908
0.0075343 0.0342224 0.0048755
0.007536 0.0342764 0.0048449
0.0075365 0.0341083 0.0049405
0.0075397 0.0340523 0.0049734
0.0075341 0.0336719 0.0052128
0.0075354 0.0337281 0.005175
0.0075363 0.0337821 0.0051393
0.0075421 0.0339946 0.0050083
0.0075374 0.0338365 0.0051047
0.0075371 0.0336151 0.0052527
0.007542 0.03394 0.0050414
0.0075407 0.0338887 0.005073
0.0075391 0.0335599 0.0052924
0.0075403 0.0335041 0.0053339
0.0075434 0.0334478 0.0053779
0.0075469 0.033393 0.0054229
0.0075462 0.0332317 0.0055574
0.007548 0.033339 0.0054677
0.0075471 0.033287 0.0055108
0.0075485 0.033178 0.0056056
0.0075531 0.0330689 0.005707
0.0075521 0.0331231 0.005657
0.0075542 0.0330153 0.0057579
0.0075569 0.0329603 0.0058122
0.0075557 0.0386251 -0.0012077
0.0075564 0.0385678 -0.0011942
0.007561 0.0393232 -0.0012938
0.0075603 0.0329062 0.0058674
0.0075582 0.0386817 -0.0012205
0.0075599 0.0387394 -0.0012323
0.0075596 0.0387967 -0.0012428
0.0075595 0.0388547 -0.0012525
0.0075591 0.0389132 -0.0012612
0.0075591 0.0389713 -0.0012687
0.0075581 0.0392062 -0.0012885
0.0075607 0.0392646 -0.0012915
0.0075585 0.0391471 -0.001285
0.0075624 0.0327451 0.0060269
0.0075593 0.0383968 -0.0011484
0.0075604 0.0390299 -0.0012753
0.0075598 0.0390889 -0.0012807
0.007559 0.0383398 -0.0011316
0.0075618 0.0327996 0.0059738
0.0075628 0.0328523 0.005922
0.0075596 0.0382848 -0.0011144
0.0075659 0.0326899 0.0060848
0.0075604 0.038511 -0.0011805
0.0075609 0.0382292 -0.001096
0.0075606 0.0384533 -0.0011648
0.0075677 0.0326382 0.0061379
0.0075616 0.0381721 -0.0010759
0.0075634 0.0325329 0.0062335
0.0075654 0.0325862 0.0061861
0.0075632 0.038116 -0.0010552
0.0075647 0.0324804 0.0062849
0.0075649 0.0380616 -0.0010341
0.0075659 0.0380072 -0.0010121
0.0075656 0.0324267 0.0063333
0.0075668 0.0379519 -0.0009886
0.007567 0.0378969 -0.0009639
0.0075674 0.0378426 -0.0009383
0.007569 0.0377887 -0.0009119
0.0075673 0.0323729 0.0063819
0.0075697 0.0376272 -0.0008253
0.0075698 0.0376816 -0.0008556
0.0075668 0.0323199 0.0064267
0.0075701 0.0377355 -0.0008846
0.0075642 0.0322662 0.0064695
0.0075708 0.0375737 -0.0007943
0.0075662 0.0322113 0.0065189
0.0075671 0.0321575 0.0065672
0.0075725 0.0375172 -0.0007601
0.007573 0.0373594 -0.0006551
0.0075731 0.0374101 -0.0006906
0.0075742 0.0373068 -0.0006165
0.0075737 0.0374609 -0.0007244
0.0075686 0.0321043 0.0066199
0.0075743 0.0319959 0.006732
0.0075718 0.0320501 0.0066754
0.0075787 0.0372529 -0.000575
0.0075804 0.0370009 -0.0003401
0.007581 0.0372022 -0.000533
0.0075817 0.0371513 -0.0004886
0.0075819 0.0370485 -0.0003895
0.007582 0.0371005 -0.0004412
0.0075824 0.0369536 -0.0002878
0.0075829 0.0369028 -0.000227
0.0075854 0.0368546 -0.0001645
0.0075858 0.0361994 0.003931
0.0075874 0.0362532 0.0039022
0.0075872 0.0367581 -2.01E-05
0.0075857 0.0361468 0.0039566
0.0075878 0.0367091 6.72E-05
0.0075885 0.0368064 -9.64E-05
0.00759 0.0363052 0.0038745
0.007586 0.0360946 0.0039815
0.0075894 0.0366628 0.0001619
0.0075869 0.0360417 0.0040047
0.0075934 0.0363605 0.003843
0.0075947 0.0364144 0.0038085
0.0075889 0.0359883 0.0040275
0.0075972 0.0364646 0.0037746
0.0075999 0.0365125 0.003741
0.0075892 0.0359346 0.0040504
0.0075895 0.0358786 0.0040751
0.0075909 0.0358204 0.0040976
0.0075943 0.0357601 0.0041194
0.007595 0.0355853 0.0041798
0.007596 0.0354124 0.0042452
0.007597 0.0356411 0.0041614
0.0075977 0.0352952 0.0042971
0.0075948 0.0355296 0.0041971
0.0075973 0.0356985 0.0041406
0.0075972 0.035353 0.0042714
0.0075956 0.0354705 0.0042204
0.0075979 0.0352394 0.0043228
0.0076013 0.0351808 0.0043505
0.0076047 0.0351213 0.0043795
0.0076049 0.035064 0.0044083
0.0076095 0.03489 0.0045005
0.007608 0.0350068 0.004438
0.0076113 0.0348326 0.0045326
0.0076102 0.0349483 0.0044692
0.0076128 0.0347796 0.004563
0.0076143 0.0347238 0.0045958
0.007616 0.0346666 0.0046296
0.0076144 0.0344468 0.0047575
0.0076166 0.0346103 0.0046632
0.0076148 0.0343927 0.0047888
0.0076162 0.034502 0.0047259
0.0076169 0.0345568 0.0046942
0.0076194 0.0343342 0.0048236
0.0076216 0.0342789 0.0048556
0.0076218 0.0342255 0.004886
0.007623 0.0341679 0.0049199
0.0076243 0.0341104 0.0049543
0.0076263 0.0340559 0.0049882
0.0076237 0.0338378 0.0051279
0.007624 0.0337283 0.0052037
0.0076238 0.0337827 0.0051652
0.0076245 0.0338936 0.005091
0.0076242 0.033672 0.0052438
0.0076266 0.0339468 0.0050573
0.0076278 0.0340005 0.0050233
0.0076257 0.0336176 0.0052846
0.0076262 0.0335652 0.0053244
0.0076258 0.0335116 0.0053664
0.0076281 0.033456 0.0054134
0.0076327 0.0334 0.0054635
0.0076348 0.0333457 0.0055122
0.0076371 0.0332378 0.0056123
0.0076364 0.0332932 0.0055602
0.007638 0.0331844 0.0056636
0.0076391 0.0331308 0.0057169
0.0076409 0.0330772 0.0057716
0.0076397 0.0386234 -0.0012201
0.0076399 0.0386787 -0.0012323
0.0076405 0.0387362 -0.0012441
0.0076409 0.0390275 -0.0012879
0.0076405 0.0390863 -0.0012936
0.0076415 0.0389688 -0.0012813
0.0076415 0.0391443 -0.0012984
0.007642 0.0330241 0.0058268
0.0076414 0.0385668 -0.0012067
0.0076424 0.0389105 -0.0012738
0.0076431 0.038794 -0.0012553
0.0076434 0.0388521 -0.0012651
0.0076419 0.0392034 -0.0013023
0.007644 0.0393209 -0.0013082
0.0076444 0.0329703 0.0058858
0.0076443 0.0392625 -0.0013057
0.0076449 0.0385099 -0.0011925
0.0076457 0.0383964 -0.0011602
0.0076483 0.0329173 0.0059473
0.0076457 0.0383387 -0.0011427
0.0076464 0.038453 -0.0011769
0.0076461 0.038283 -0.0011249
0.0076457 0.0381694 -0.001085
0.007646 0.0382272 -0.0011058
0.0076527 0.0327573 0.006122
0.0076511 0.0328641 0.0060064
0.0076469 0.038114 -0.0010642
0.0076503 0.0328115 0.0060637
0.0076556 0.032703 0.0061791
0.0076493 0.0380602 -0.0010427
0.0076572 0.0326525 0.0062324
0.0076508 0.0378965 -0.0009704
0.0076506 0.03795 -0.0009953
0.0076512 0.0378434 -0.0009446
0.0076517 0.0377891 -0.0009171
0.0076512 0.0380053 -0.0010198
0.0076524 0.0376283 -0.0008283
0.0076531 0.0376826 -0.0008595
0.0076532 0.037736 -0.0008891
0.0076556 0.0326015 0.0062819
0.0076535 0.0325478 0.0063311
0.0076552 0.0375744 -0.0007962
0.0076554 0.0324946 0.0063798
0.0076556 0.0324409 0.006424
0.0076569 0.0375176 -0.0007609
0.0076572 0.0374106 -0.0006899
0.0076576 0.0373599 -0.0006538
0.0076574 0.0374627 -0.0007253
0.0076523 0.0322792 0.006553
0.007655 0.0323333 0.0065122
0.0076571 0.0323872 0.0064692
0.0076593 0.0373064 -0.0006136
0.0076528 0.0322245 0.0066013
0.0076536 0.0321711 0.0066484
0.007654 0.0321174 0.0066972
0.0076624 0.0372533 -0.0005721
0.0076565 0.0320616 0.0067499
0.0076632 0.0372032 -0.0005297
0.0076599 0.0320069 0.0068077
0.0076635 0.0371517 -0.0004846
0.0076638 0.0370005 -0.0003347
0.0076647 0.0370495 -0.000386
0.0076648 0.0371013 -0.0004373
0.0076666 0.0369526 -0.0002812
0.0076684 0.0361924 0.0039178
0.0076678 0.0369023 -0.0002206
0.0076678 0.0361412 0.0039472
0.00767 0.0362465 0.0038867
0.00767 0.0368562 -0.0001609
0.0076676 0.0360915 0.0039728
0.0076709 0.0367603 -1.85E-05
0.0076721 0.0368088 -9.43E-05
0.0076742 0.0362987 0.0038557
0.0076725 0.0367107 6.88E-05
0.007671 0.036036 0.0039987
0.0076748 0.0366637 0.0001623
0.0076754 0.0366222 0.000259
0.0076785 0.036351 0.0038195
0.0076734 0.0359795 0.0040246
0.0076792 0.0364049 0.003784
0.0076757 0.0359235 0.0040495
0.0076793 0.0358675 0.0040725
0.0076811 0.0358118 0.0040948
0.0076831 0.0356404 0.0041641
0.0076839 0.0357538 0.0041199
0.0076835 0.0355835 0.0041831
0.0076845 0.0356969 0.0041436
0.007685 0.0354098 0.0042472
0.0076846 0.0355274 0.0042019
0.0076852 0.035468 0.0042225
0.0076871 0.0353504 0.0042731
0.0076885 0.0352942 0.0042995
0.0076897 0.0352384 0.004326
0.0076942 0.0350616 0.0044146
0.0076947 0.0351188 0.0043848
0.0076928 0.0351789 0.0043547
0.0076971 0.035005 0.0044445
0.0076998 0.0348899 0.0045077
0.0076998 0.0349467 0.0044762
0.0077012 0.0348334 0.0045404
0.007701 0.0347797 0.0045722
0.0077014 0.034726 0.0046045
0.0077024 0.0346718 0.0046373
0.0077019 0.0344512 0.0047695
0.0077028 0.0345062 0.0047366
0.0077042 0.0346151 0.0046717
0.007704 0.0345614 0.0047038
0.0077036 0.0343963 0.0048023
0.0077069 0.0343375 0.0048368
0.0077094 0.0342809 0.0048706
0.0077127 0.0341671 0.0049409
0.0077118 0.0342247 0.0049055
0.0077141 0.0341095 0.0049773
0.0077107 0.0338966 0.0051174
0.0077123 0.0338401 0.0051578
0.007715 0.0340572 0.0050113
0.0077118 0.0339514 0.0050806
0.0077147 0.0340043 0.0050462
0.0077135 0.0337859 0.0051979
0.0077151 0.033731 0.00524
0.0077163 0.0336756 0.0052831
0.0077171 0.0336214 0.0053261
0.0077178 0.0335681 0.0053704
0.0077188 0.033514 0.0054173
0.007719 0.0334599 0.0054658
0.0077218 0.0334054 0.0055178
0.0077239 0.039026 -0.0012989
0.0077238 0.0390842 -0.0013047
0.0077245 0.0389086 -0.001284
0.007724 0.0389673 -0.0012919
0.007725 0.0391412 -0.0013097
0.0077242 0.0387341 -0.0012545
0.0077251 0.0392 -0.001314
0.0077252 0.0333517 0.0055721
0.0077256 0.0386765 -0.0012428
0.0077266 0.0392597 -0.0013179
0.0077268 0.0393182 -0.0013213
0.0077271 0.0386216 -0.0012307
0.0077266 0.0388501 -0.0012754
0.0077274 0.0385652 -0.001217
0.0077284 0.0383948 -0.0011696
0.0077276 0.0385075 -0.001202
0.0077309 0.0332428 0.0056855
0.0077287 0.0384512 -0.0011863
0.0077272 0.0387917 -0.0012657
0.0077338 0.0331361 0.0058009
0.0077287 0.0383382 -0.0011521
0.0077328 0.0331898 0.0057426
0.0077281 0.0332996 0.0056259
0.0077362 0.0330844 0.0058627
0.0077292 0.0381681 -0.0010931
0.0077301 0.0382827 -0.0011341
0.00773 0.0382261 -0.0011143
0.0077302 0.0381134 -0.0010718
0.0077324 0.0380593 -0.0010498
0.0077345 0.0379485 -0.0010005
0.0077346 0.0380044 -0.0010261
0.0077364 0.0378938 -0.0009745
0.0077432 0.0328801 0.0061188
0.0077371 0.0377876 -0.0009199
0.0077375 0.0376814 -0.0008607
0.0077374 0.0377344 -0.0008909
0.0077459 0.0327729 0.0062345
0.0077435 0.0328269 0.0061781
0.0077378 0.0376269 -0.0008285
0.0077377 0.0378407 -0.0009478
0.0077396 0.0375733 -0.0007956
0.0077471 0.0327211 0.0062919
0.0077404 0.0374114 -0.0006878
0.0077404 0.0374643 -0.0007244
0.0077403 0.0375177 -0.00076
0.0077406 0.0373589 -0.0006495
0.0077492 0.03267 0.0063423
0.007743 0.0373054 -0.0006081
0.0077469 0.0326179 0.0063846
0.0077453 0.0325638 0.0064294
0.0077465 0.037253 -0.0005661
0.0077468 0.0371488 -0.0004761
0.0077472 0.0372018 -0.0005238
0.0077497 0.0325092 0.0064785
0.0077478 0.0370014 -0.0003288
0.0077478 0.0370996 -0.0004294
0.0077481 0.0370505 -0.0003804
0.0077438 0.0322369 0.0066864
0.0077457 0.032292 0.0066462
0.0077505 0.0324543 0.0065226
0.0077425 0.0321837 0.0067293
0.0077493 0.032345 0.0066076
0.0077426 0.0321288 0.0067751
0.0077503 0.0369535 -0.0002753
0.007745 0.0320729 0.006828
0.0077507 0.0324002 0.0065651
0.0077524 0.0369039 -0.0002156
0.0077562 0.0361806 0.003901
0.0077517 0.0320187 0.0068877
0.0077557 0.036075 0.0039634
0.0077565 0.0361266 0.0039339
0.007758 0.0362332 0.003866
0.0077549 0.0368563 -0.0001541
0.0077555 0.0367608 -1.29E-05
0.0077565 0.0368077 -8.61E-05
0.0077571 0.0367134 6.86E-05
0.0077593 0.0360194 0.0039928
0.0077617 0.0362832 0.0038316
0.0077604 0.0359635 0.0040187
0.0077598 0.0366659 0.0001614
0.0077644 0.0363355 0.0037954
0.0077639 0.0363896 0.0037561
0.0077613 0.0359106 0.0040452
0.007762 0.0366239 0.0002578
0.0077641 0.0358582 0.0040698
0.0077649 0.035806 0.004092
0.0077665 0.0357509 0.0041167
0.0077672 0.0356962 0.0041405
0.0077662 0.0356422 0.0041662
0.0077665 0.0355862 0.0041885
0.0077689 0.0355278 0.0042083
0.0077715 0.035467 0.0042282
0.0077733 0.0354077 0.0042544
0.0077769 0.035349 0.0042815
0.007778 0.0352937 0.004308
0.0077792 0.0352369 0.004336
0.0077843 0.0350603 0.0044261
0.0077816 0.0351774 0.0043657
0.0077843 0.0351177 0.0043962
0.0077859 0.0348924 0.0045191
0.0077859 0.0350043 0.0044566
0.007786 0.0349481 0.0044878
0.0077888 0.0348357 0.0045536
0.0077904 0.0347812 0.0045868
0.0077898 0.0347269 0.0046196
0.0077897 0.0346726 0.0046529
0.0077917 0.0345066 0.0047553
0.0077925 0.034561 0.0047222
0.0077931 0.0346155 0.0046893
0.007791 0.034453 0.004788
0.0077918 0.034341 0.0048559
0.0077927 0.0343976 0.0048223
0.0077947 0.0342846 0.0048912
0.0077968 0.0341719 0.0049634
0.0077973 0.0342275 0.004928
0.0077992 0.034116 0.0050012
0.0078008 0.0340636 0.0050372
0.0077998 0.0339008 0.0051527
0.0077985 0.033957 0.0051113
0.0078 0.0340104 0.0050741
0.0078015 0.0338445 0.0051959
0.007804 0.0337905 0.0052396
0.0078052 0.038732 -0.0012633
0.0078059 0.0389063 -0.0012935
0.0078067 0.0392574 -0.0013282
0.0078065 0.0393154 -0.001332
0.0078061 0.0337362 0.0052848
0.0078068 0.0389652 -0.0013017
0.0078075 0.0391979 -0.0013243
0.0078068 0.0388483 -0.0012845
0.0078074 0.0390239 -0.0013089
0.0078074 0.0390816 -0.0013148
0.007808 0.0391389 -0.0013199
0.0078075 0.0386746 -0.0012516
0.0078067 0.0387898 -0.0012744
0.0078098 0.0335182 0.0054813
0.007807 0.0336815 0.005331
0.0078099 0.0335724 0.0054298
0.0078107 0.0334648 0.0055347
0.0078091 0.0336267 0.0053797
0.0078103 0.0386199 -0.0012393
0.0078124 0.033412 0.0055893
0.0078107 0.0383934 -0.0011775
0.0078109 0.0385063 -0.0012101
0.0078111 0.0385635 -0.0012253
0.0078116 0.0384513 -0.0011948
0.0078123 0.0383359 -0.0011594
0.007826 0.0332473 0.0057786
0.0078132 0.038167 -0.0010995
0.0078142 0.0382805 -0.0011409
0.0078143 0.0381124 -0.0010779
0.0078144 0.0382237 -0.0011208
0.0078281 0.0331974 0.0058406
0.0078153 0.0380577 -0.0010551
0.0078167 0.0379493 -0.0010055
0.007817 0.0380041 -0.0010311
0.0078177 0.0378933 -0.000978
0.0078185 0.0377856 -0.0009211
0.0078183 0.0378382 -0.0009496
0.00782 0.037732 -0.000891
0.0078207 0.0376793 -0.0008601
0.0078216 0.0376258 -0.0008273
0.0078229 0.0375725 -0.0007936
0.0078287 0.0329011 0.0062413
0.0078243 0.0375177 -0.0007576
0.0078247 0.0374125 -0.0006845
0.0078247 0.0374652 -0.0007217
0.0078253 0.0373593 -0.0006449
0.0078312 0.0327952 0.0063532
0.0078299 0.0328488 0.0062989
0.0078275 0.0373067 -0.0006035
0.0078376 0.0327395 0.006409
0.0078294 0.0371478 -0.0004684
0.00783 0.0372007 -0.0005158
0.00783 0.0372536 -0.0005602
0.0078322 0.0371 -0.0004225
0.0078412 0.032687 0.0064567
0.0078331 0.0370026 -0.0003223
0.0078337 0.0370515 -0.0003738
0.0078385 0.0326338 0.0064941
0.0078349 0.0369543 -0.0002683
0.0078371 0.0325798 0.0065328
0.0078374 0.0369046 -0.0002082
0.0078359 0.0323035 0.0067277
0.0078384 0.032357 0.0066908
0.0078417 0.032468 0.0066157
0.0078362 0.0320822 0.0069026
0.0078413 0.0325242 0.0065746
0.0078329 0.0321392 0.0068522
0.0078351 0.0322486 0.0067678
0.0078396 0.0324127 0.0066525
0.0078338 0.0321948 0.0068083
0.0078396 0.0368564 -0.0001462
0.0078398 0.0367622 -8.6E-06
0.0078442 0.0320265 0.00696
0.0078401 0.0368085 -7.99E-05
0.0078407 0.0367167 6.87E-05
0.0078427 0.0366711 0.0001563
0.0078458 0.036628 0.0002527
0.007854 0.0359465 0.0040132
0.0078539 0.0358924 0.0040423
0.0078554 0.0359998 0.0039824
0.0078555 0.0360534 0.0039506
0.0078553 0.0358404 0.0040691
0.007857 0.0361082 0.0039145
0.0078524 0.0363764 0.0037232
0.0078538 0.035792 0.0040934
0.0078556 0.0361674 0.0038759
0.0078544 0.0362718 0.0038013
0.0078552 0.0362222 0.003837
0.0078528 0.0357406 0.0041202
0.0078548 0.0363231 0.0037643
0.0078522 0.0356886 0.0041462
0.0078523 0.0356345 0.0041724
0.0078542 0.0355801 0.0041989
0.0078566 0.0355244 0.004223
0.0078581 0.0354672 0.0042483
0.0078605 0.0354092 0.0042711
0.0078655 0.0353507 0.0042995
0.0078661 0.0352957 0.0043261
0.0078707 0.0351209 0.0044115
0.0078722 0.0350631 0.0044425
0.007869 0.0351802 0.0043804
0.0078682 0.0352378 0.0043513
0.0078735 0.0350064 0.0044737
0.007874 0.0349506 0.0045052
0.0078743 0.0348406 0.0045703
0.0078741 0.0348968 0.0045367
0.0078752 0.0347856 0.004604
0.0078756 0.0347301 0.0046386
0.0078754 0.0346757 0.0046721
0.007879 0.0346179 0.0047095
0.0078821 0.0345612 0.0047463
0.0078842 0.0341756 0.004995
0.0078817 0.0343442 0.0048833
0.0078835 0.0345083 0.0047806
0.0078841 0.0341214 0.0050326
0.0078831 0.0342889 0.0049196
0.0078849 0.0342314 0.0049582
0.0078834 0.034455 0.0048141
0.007885 0.0343996 0.0048494
0.007885 0.0340691 0.0050705
0.0078853 0.0340163 0.0051097
0.0078859 0.0339634 0.0051503
0.0078915 0.0390798 -0.0013235
0.0078886 0.0339086 0.0051947
0.007892 0.0387313 -0.0012714
0.0078919 0.0389053 -0.0013022
0.0078917 0.0390221 -0.0013176
0.0078921 0.0392559 -0.0013377
0.0078919 0.0393147 -0.0013417
0.0078928 0.0386743 -0.0012593
0.0078922 0.03879 -0.0012827
0.0078923 0.0388482 -0.001293
0.0078919 0.0389636 -0.0013104
0.0078924 0.0391378 -0.0013289
0.0078922 0.0391967 -0.0013336
0.0078935 0.0386187 -0.0012464
0.0078909 0.0338536 0.0052413
0.0078942 0.0383923 -0.0011836
0.0078953 0.0385621 -0.0012322
0.007895 0.038335 -0.0011655
0.0079038 0.0335241 0.0055691
0.0078965 0.0385054 -0.001217
0.0078938 0.033799 0.0052899
0.0078963 0.0382801 -0.0011468
0.0078972 0.038451 -0.0012016
0.0079076 0.0334679 0.0056273
0.0079037 0.0335781 0.0055109
0.0078962 0.0337447 0.0053402
0.0078972 0.0382233 -0.0011263
0.0078972 0.038166 -0.0011044
0.0078976 0.0381102 -0.0010817
0.0078979 0.038055 -0.0010581
0.0079023 0.0336332 0.0054526
0.0078989 0.0336894 0.0053941
0.0079003 0.0380018 -0.0010338
0.0079016 0.0379476 -0.0010079
0.0079021 0.0378377 -0.0009511
0.0079021 0.0378927 -0.0009801
0.0079028 0.0377839 -0.0009211
0.0079038 0.0376272 -0.0008267
0.0079044 0.0376805 -0.00086
0.0079044 0.0377326 -0.0008914
0.0079053 0.0375736 -0.0007921
0.0079075 0.0375191 -0.000755
0.0079078 0.0374654 -0.0007176
0.0079085 0.0374098 -0.0006772
0.0079101 0.0373534 -0.0006338
0.0079124 0.0372997 -0.0005914
0.0079135 0.03287 0.006413
0.0079171 0.0328146 0.0064604
0.0079143 0.0372487 -0.0005493
0.0079146 0.0371978 -0.0005052
0.0079152 0.0371488 -0.0004608
0.0079232 0.0327571 0.0065096
0.0079172 0.0371023 -0.0004162
0.0079177 0.0370032 -0.0003146
0.0079178 0.0370535 -0.0003674
0.0079267 0.0327028 0.006553
0.0079199 0.0369535 -0.0002584
0.0079275 0.0326472 0.006591
0.0079221 0.0369041 -0.0001992
0.0079278 0.0325918 0.0066269
0.0079287 0.0324804 0.0066976
0.0079283 0.0325367 0.0066608
0.007924 0.0368556 -0.000137
0.0079246 0.0368081 -7.1E-05
0.0079248 0.0323138 0.0068032
0.0079279 0.0323682 0.0067692
0.007928 0.032424 0.0067322
0.0079255 0.0367612 1E-06
0.007927 0.0367161 7.72E-05
0.0079283 0.0320913 0.006971
0.0079262 0.0322588 0.0068426
0.0079345 0.0320351 0.007024
0.0079279 0.0366724 0.0001611
0.007926 0.0321478 0.0069236
0.0079262 0.0322041 0.0068825
0.0079316 0.0366266 0.000262
0.0079328 0.0365858 0.0003659
0.0079425 0.03583 0.0040686
0.0079331 0.0365461 0.0004774
0.0079429 0.0358819 0.0040374
0.00794 0.0357826 0.0040953
0.0079424 0.0359387 0.0040024
0.0079424 0.0359921 0.0039672
0.0079386 0.0357344 0.0041237
0.0079378 0.035685 0.0041518
0.0079447 0.0360458 0.0039298
0.0079373 0.0356328 0.0041825
0.0079419 0.0355767 0.0042136
0.0079441 0.0363777 0.0036847
0.0079462 0.0355217 0.0042428
0.0079479 0.0363199 0.0037208
0.0079468 0.0354095 0.0042959
0.0079481 0.0354642 0.0042715
0.0079493 0.0353517 0.0043222
0.0079508 0.0352969 0.0043464
0.007952 0.0352426 0.0043741
0.0079516 0.0351869 0.0044027
0.0079549 0.0350701 0.0044621
0.0079558 0.0350142 0.0044941
0.007955 0.0351268 0.0044316
0.0079596 0.034957 0.0045281
0.00796 0.034847 0.0045939
0.0079608 0.0349026 0.004561
0.0079623 0.0347906 0.0046288
0.0079636 0.0347342 0.0046638
0.0079635 0.0346798 0.0046981
0.0079652 0.0346229 0.0047343
0.0079677 0.0345671 0.0047711
0.0079674 0.0345146 0.0048049
0.0079686 0.0342949 0.0049526
0.0079688 0.0343497 0.0049152
0.007969 0.0344598 0.004842
0.0079698 0.0342393 0.0049918
0.007972 0.0341838 0.0050324
0.0079713 0.0344042 0.0048796
0.0079724 0.0390785 -0.0013306
0.0079723 0.0341291 0.0050731
0.0079731 0.03902 -0.0013245
0.0079751 0.0391364 -0.0013361
0.0079724 0.0340772 0.0051129
0.0079749 0.0387308 -0.0012777
0.0079754 0.0386736 -0.0012655
0.0079753 0.0387894 -0.0012892
0.0079753 0.0388472 -0.0012995
0.0079748 0.0389611 -0.0013172
0.0079756 0.0391953 -0.0013408
0.0079752 0.0393135 -0.0013488
0.0079754 0.0389033 -0.0013088
0.0079758 0.0392545 -0.001345
0.0079757 0.0386162 -0.0012518
0.0079728 0.0340254 0.0051544
0.0079778 0.0385596 -0.0012373
0.007973 0.0339723 0.0051983
0.0079778 0.03839 -0.0011879
0.0079783 0.038334 -0.0011697
0.0079755 0.0339162 0.0052488
0.0079774 0.033861 0.0053005
0.0079796 0.0384482 -0.0012059
0.0079798 0.0385031 -0.0012219
0.0079803 0.0382795 -0.001151
0.0079896 0.0336411 0.0055464
0.0079798 0.033807 0.0053544
0.007981 0.0382227 -0.0011301
0.0079857 0.0336976 0.0054751
0.0079823 0.0337534 0.0054112
0.0079817 0.0381657 -0.0011079
0.0079824 0.03811 -0.0010849
0.0079828 0.0380557 -0.0010612
0.0079847 0.0380031 -0.0010368
0.0079853 0.0378929 -0.0009813
0.0079854 0.0379481 -0.0010098
0.0079859 0.0378375 -0.0009513
0.0079869 0.0377829 -0.00092
0.0079875 0.0377331 -0.0008908
0.0079878 0.0376795 -0.0008575
0.0079881 0.0376252 -0.0008228
0.00799 0.0375726 -0.0007878
0.0079922 0.0375193 -0.0007509
0.0079929 0.037465 -0.000712
0.0079945 0.0374098 -0.0006708
0.0079955 0.0373011 -0.0005852
0.0079953 0.0373547 -0.0006283
0.0079958 0.0372499 -0.0005429
0.0079968 0.0371975 -0.0004974
0.0079998 0.0371476 -0.0004515
0.0080021 0.0370997 -0.0004057
0.008005 0.0329424 0.0064869
0.008003 0.0370516 -0.000357
0.0080033 0.0370012 -0.0003032
0.0080048 0.0369516 -0.0002473
0.0080087 0.0328866 0.0065278
0.0080056 0.0369047 -0.0001909
0.0080063 0.0368559 -0.0001285
0.0080128 0.0328307 0.0065682
0.0080082 0.0368067 -5.99E-05
0.0080154 0.0327736 0.0066061
0.0080178 0.0327183 0.0066419
0.0080117 0.0367592 1.27E-05
0.0080215 0.0326602 0.0066793
0.0080136 0.0366731 0.0001688
0.0080243 0.0326033 0.0067137
0.0080139 0.0367166 8.51E-05
0.0080223 0.0325489 0.0067441
0.0080222 0.032492 0.0067768
0.0080163 0.0321004 0.0070333
0.0080194 0.0323228 0.0068762
0.0080153 0.0321561 0.0069879
0.0080177 0.0322114 0.0069493
0.0080239 0.0323782 0.0068461
0.0080237 0.0324346 0.0068113
0.0080195 0.0322674 0.0069135
0.0080208 0.0320454 0.0070851
0.0080173 0.0366261 0.0002713
0.0080182 0.0365851 0.0003738
0.0080196 0.0365464 0.0004799
0.0080302 0.0357232 0.0041337
0.0080326 0.0357708 0.0041013
0.0080285 0.0356749 0.0041656
0.0080346 0.0358217 0.0040667
0.0080223 0.0365089 0.0005898
0.0080288 0.0356229 0.0041978
0.0080377 0.0358752 0.004029
0.0080325 0.0355714 0.0042336
0.0080295 0.0363869 0.0036409
0.0080358 0.0355191 0.0042647
0.0080329 0.0363292 0.0036766
0.0080351 0.0354103 0.0043225
0.0080365 0.0354639 0.0042964
0.0080371 0.0353552 0.0043522
0.0080408 0.0353 0.0043801
0.0080396 0.0351896 0.0044316
0.0080419 0.0352452 0.0044063
0.0080428 0.035132 0.0044639
0.0080425 0.0350207 0.0045226
0.0080426 0.0350752 0.0044918
0.0080449 0.0349639 0.0045567
0.0080477 0.0349079 0.0045912
0.0080481 0.0348526 0.0046248
0.0080508 0.0347387 0.0046953
0.008051 0.0346837 0.0047295
0.0080505 0.0347957 0.0046606
0.0080524 0.0346283 0.0047653
0.0080542 0.0345736 0.0048019
0.008054 0.0345203 0.0048373
0.0080565 0.0387303 -0.0012824
0.0080562 0.0344651 0.0048758
0.0080574 0.0390781 -0.001336
0.0080567 0.0343007 0.0049943
0.0080565 0.0343555 0.004954
0.0080576 0.0387882 -0.0012939
0.0080564 0.0342475 0.0050345
0.0080574 0.03441 0.0049158
0.0080581 0.0386735 -0.0012701
0.008058 0.0390197 -0.0013298
0.0080583 0.0391347 -0.0013412
0.0080583 0.0391935 -0.0013459
0.0080585 0.038846 -0.0013044
0.0080592 0.0389022 -0.0013137
0.0080592 0.0392533 -0.0013502
0.0080594 0.0389605 -0.0013223
0.0080593 0.0393123 -0.0013541
0.008058 0.0341938 0.0050772
0.0080603 0.0386169 -0.0012567
0.0080613 0.0385601 -0.001242
0.0080614 0.0384468 -0.0012094
0.0080586 0.0341402 0.0051211
0.0080621 0.0385026 -0.0012261
0.0080623 0.0383895 -0.0011913
0.0080595 0.0340867 0.0051662
0.0080632 0.0383338 -0.0011728
0.0080629 0.0340317 0.0052166
0.0080659 0.0381643 -0.0011094
0.0080663 0.0382779 -0.0011531
0.0080666 0.0382216 -0.0011321
0.0080668 0.0381089 -0.0010862
0.0080658 0.0339786 0.005269
0.0080678 0.0380553 -0.0010623
0.0080703 0.0339229 0.0053288
0.0080697 0.0380023 -0.0010371
0.00807 0.0379474 -0.0010096
0.0080707 0.0377829 -0.0009183
0.0080706 0.0378926 -0.0009808
0.0080709 0.0377335 -0.0008886
0.0080716 0.0378369 -0.0009499
0.0080724 0.0376807 -0.0008552
0.0080743 0.0376269 -0.0008201
0.0080752 0.0375741 -0.0007843
0.0080768 0.0375212 -0.000747
0.0080775 0.0374671 -0.0007076
0.0080789 0.037302 -0.0005783
0.008079 0.0372521 -0.0005367
0.0080799 0.0373557 -0.0006221
0.0080796 0.0374115 -0.0006657
0.0080808 0.0372021 -0.0004929
0.0080832 0.037152 -0.0004471
0.0080858 0.0371024 -0.0003994
0.0080895 0.0331247 0.0064735
0.008089 0.0370528 -0.0003486
0.0080896 0.0370023 -0.0002952
0.0080946 0.0330702 0.0065161
0.0080901 0.0369528 -0.000239
0.0080915 0.036906 -0.0001831
0.0080964 0.0330141 0.0065518
0.0080921 0.0368582 -0.0001216
0.0080934 0.0368099 -5.46E-05
0.0080997 0.0329571 0.0065886
0.008096 0.0367615 1.83E-05
0.0081043 0.0328994 0.0066248
0.0081062 0.0328434 0.0066567
0.0080992 0.0367157 9.63E-05
0.0081005 0.0366709 0.0001831
0.0081103 0.032786 0.0066915
0.0081146 0.0326709 0.0067556
0.008114 0.0327292 0.0067241
0.0081149 0.032614 0.0067863
0.0081042 0.0366278 0.0002766
0.0081164 0.0325004 0.0068479
0.0081156 0.0325582 0.0068157
0.0081169 0.0324429 0.0068809
0.0081073 0.0321099 0.0070957
0.0081144 0.0323874 0.0069101
0.008105 0.0365876 0.0003758
0.0081105 0.0323331 0.0069401
0.0081059 0.0365473 0.0004848
0.0081116 0.0320539 0.0071492
0.0081096 0.0322775 0.0069752
0.0081072 0.0321667 0.0070512
0.0081079 0.0322218 0.0070113
0.0081089 0.0365096 0.0005938
0.0081112 0.0363815 0.003581
0.0081262 0.0356647 0.0041826
0.0081118 0.0364723 0.0007009
0.0081286 0.0357128 0.0041455
0.0081135 0.0363259 0.0036198
0.0081273 0.0356139 0.0042199
0.0081314 0.0357632 0.004107
0.0081285 0.0355657 0.0042588
0.0081216 0.0354117 0.0043531
0.0081245 0.035464 0.004324
0.0081282 0.0355165 0.0042916
0.0081224 0.035358 0.0043841
0.008126 0.0353038 0.0044132
0.0081272 0.0352501 0.0044434
0.0081262 0.0351941 0.0044689
0.0081295 0.035138 0.0045015
0.0081281 0.0350269 0.0045577
0.0081284 0.0349713 0.0045903
0.0081292 0.0350824 0.0045296
0.008132 0.0349153 0.0046258
0.0081331 0.0348594 0.0046596
0.0081346 0.034746 0.0047286
0.0081345 0.0348025 0.0046941
0.0081363 0.0346915 0.0047634
0.0081368 0.0346365 0.0047993
0.0081379 0.0345806 0.0048373
0.0081407 0.0387292 -0.0012855
0.0081408 0.0391933 -0.0013491
0.008141 0.0392525 -0.0013531
0.0081419 0.0391337 -0.0013444
0.0081416 0.0345258 0.0048773
0.0081421 0.0389016 -0.0013168
0.0081422 0.0389603 -0.0013254
0.0081422 0.0390184 -0.0013329
0.0081421 0.0393114 -0.0013568
0.0081425 0.0387868 -0.0012969
0.0081425 0.0390767 -0.0013392
0.0081428 0.0386715 -0.0012728
0.0081437 0.0388445 -0.0013074
0.008145 0.0344706 0.0049187
0.0081458 0.0344161 0.0049601
0.0081453 0.0343623 0.005002
0.0081452 0.0343086 0.0050453
0.0081434 0.0342567 0.0050877
0.0081459 0.0384462 -0.0012117
0.0081463 0.0385013 -0.0012284
0.0081463 0.0386152 -0.0012594
0.0081469 0.0385583 -0.0012445
0.0081429 0.0342058 0.0051318
0.0081475 0.0383893 -0.0011934
0.0081481 0.0383338 -0.0011745
0.008144 0.0341523 0.0051805
0.0081481 0.034097 0.0052358
0.0081503 0.0381669 -0.0011111
0.0081503 0.0382778 -0.0011543
0.0081506 0.0382228 -0.0011334
0.0081509 0.0381115 -0.0010875
0.0081547 0.0340397 0.0053003
0.0081525 0.0380566 -0.0010625
0.0081547 0.0380025 -0.0010365
0.0081553 0.0379482 -0.0010088
0.0081557 0.0377838 -0.0009158
0.0081566 0.0378931 -0.0009791
0.008157 0.0378375 -0.0009476
0.0081571 0.0377333 -0.0008851
0.0081581 0.0376803 -0.0008511
0.0081597 0.0376268 -0.0008156
0.0081599 0.0375743 -0.0007795
0.0081602 0.0375223 -0.0007422
0.0081608 0.0374693 -0.0007029
0.008163 0.0373074 -0.0005755
0.0081626 0.0374145 -0.0006615
0.0081632 0.0373594 -0.0006182
0.0081647 0.0372575 -0.0005333
0.0081668 0.0372064 -0.0004883
0.0081681 0.0371549 -0.0004412
0.0081705 0.0371052 -0.0003934
0.0081728 0.0370055 -0.0002901
0.0081729 0.0370556 -0.0003432
0.0081731 0.0369555 -0.0002335
0.0081845 0.0331938 0.0065354
0.0081755 0.0369079 -0.000176
0.008178 0.0368599 -0.0001144
0.0081902 0.0331364 0.0065735
0.0081811 0.0368118 -4.82E-05
0.008189 0.0330822 0.0066042
0.008182 0.0367655 2.16E-05
0.0081878 0.0330274 0.0066335
0.0081838 0.0367176 0.0001024
0.0081854 0.0366728 0.0001885
0.0081926 0.0329702 0.0066674
0.0081978 0.032911 0.0067016
0.0081983 0.0328537 0.0067302
0.0081897 0.0366309 0.0002795
0.0082002 0.0324528 0.006938
0.0082018 0.0325097 0.0069065
0.0082011 0.0327961 0.0067608
0.0082036 0.0326814 0.0068194
0.0082017 0.032568 0.0068758
0.0082033 0.0326244 0.006849
0.0082024 0.03274 0.0067893
0.008192 0.0365901 0.0003801
0.0081956 0.0323989 0.006966
0.008193 0.0365494 0.0004887
0.0081935 0.0322877 0.0070328
0.0081958 0.0323434 0.0069989
0.0081912 0.032121 0.0071522
0.0081925 0.0322323 0.0070687
0.0081929 0.0321771 0.0071084
0.0081958 0.0365126 0.0005945
0.0081981 0.032065 0.0072057
0.0082049 0.0362211 0.0036287
0.0082278 0.0356597 0.0042029
0.0082263 0.0355625 0.0042852
0.0082301 0.0356086 0.0042468
0.0082226 0.0355155 0.0043194
0.0082198 0.0354645 0.0043573
0.0082172 0.0354144 0.0043895
