# .PCD v0.7 - Point Cloud Data file format
VERSION 0.7
FIELDS x y z
SIZE 4 4 4
TYPE F F F
COUNT 1 1 1
WIDTH 821
HEIGHT 1
VIEWPOINT 0 0 0 1 0 0 0
POINTS 821
DATA ascii
0.0103228120133281 0.0328446887433529 0.00821375008672476
0.0103193754330277 0.0329031273722649 0.00818687491118908
0.0103206252679229 0.0329618752002716 0.0081543754786253
0.0103221870958805 0.0330187492072582 0.00812875013798475
0.0103221870958805 0.0330778136849403 0.00811124965548515
0.0103203123435378 0.0331371873617172 0.00808843690901995
0.0103190625086427 0.0331959389150143 0.00806593708693981
0.0103156249970198 0.033253125846386 0.00803000014275312
0.0103149991482496 0.0333025008440018 0.00795125029981136
0.0103137502446771 0.0333509370684624 0.00787593703716993
0.0103131243959069 0.0334046855568886 0.00782062485814095
0.0103125004097819 0.0334587506949902 0.00777218770235777
0.0103109376505017 0.0335149988532066 0.00773374969139695
0.0103112496435642 0.0335699990391731 0.00769875012338161
0.0103081241250038 0.0336231216788292 0.00764187471941113
0.0103046875447035 0.0336775034666061 0.0075909374281764
0.0103028127923608 0.0337318778038025 0.00754062505438924
0.0103003121912479 0.0337825007736683 0.00747781246900558
0.0102993743494153 0.0338328145444393 0.00741031253710389
0.0102981254458427 0.03388312458992 0.00733781233429909
0.0102946870028973 0.0339340642094612 0.00726156216114759
0.010292187333107 0.0339834354817867 0.00718562491238117
0.0102896867319942 0.0340325012803078 0.00711218733340502
0.0102871879935265 0.0340825021266937 0.00703875022009015
0.0102849993854761 0.0341328121721745 0.0069671873934567
0.0102821877226233 0.0341834388673306 0.006899687461555
0.0102784372866154 0.0342350006103516 0.00683624995872378
0.0102759366855025 0.0342865623533726 0.00677875010296702
0.0102731250226498 0.0343406274914742 0.00673468736931682
0.0102706253528595 0.0343953147530556 0.0066940626129508
0.010266562923789 0.0344490632414818 0.00664593745023012
0.0102631254121661 0.0345046892762184 0.00660281209275126
0.0102621875703335 0.0345609374344349 0.00656874990090728
0.0102640632539988 0.0346193723380566 0.00654500024393201
0.0102659380063415 0.0346768759191036 0.00652281241491437
0.0102674998342991 0.0347306244075298 0.00648312503471971
0.0102643743157387 0.0347865633666515 0.00644406257197261
0.0102609377354383 0.0348406247794628 0.00640406226739287
0.0102593749761581 0.0348956249654293 0.0063590626232326
0.010258125141263 0.0349496863782406 0.00630968762561679
0.0102568753063679 0.0350021868944168 0.00625687511637807
0.0102556245401502 0.0350556261837482 0.00621249992400408
0.0102546876296401 0.0351115614175797 0.00617281254380941
0.0102521879598498 0.0351643748581409 0.00612187478691339
0.0102515621110797 0.0352171845734119 0.00606968719512224
0.0102518750354648 0.0352696888148785 0.00601375009864569
0.010249687358737 0.0353209376335144 0.0059587499126792
0.0102465627714992 0.0353728160262108 0.00589937483891845
0.0102428123354912 0.0354246869683266 0.00583718717098236
0.0102396877482533 0.0354746840894222 0.0057778125628829
0.0102353123947978 0.0355246886610985 0.00571000017225742
0.0102312499657273 0.0355743765830994 0.00563500029966235
0.0102303121238947 0.0356203131377697 0.00555062480270863
0.0102271875366569 0.0356656275689602 0.00545937474817038
0.0102225001901388 0.0357115641236305 0.00536437518894672
0.0140490625053644 0.0389518737792969 0.000836874998640269
0.0140500003471971 0.03889250010252 0.000840937485918403
0.0140515621751547 0.038832813501358 0.000856874976307154
0.0140512501820922 0.0387750007212162 0.000865937443450093
0.0140528129413724 0.0387156270444393 0.000873749959282577
0.01405437476933 0.0386565625667572 0.000884062552358955
0.0140546876937151 0.0385996848344803 0.000900625018402934
0.0140546876937151 0.0385409407317638 0.000905937515199184
0.0140565624460578 0.0384831242263317 0.000918124977033585
0.0140571873635054 0.03842593729496 0.000930625014007092
0.0140568753704429 0.0383693724870682 0.000945937528740615
0.0140575002878904 0.0383109375834465 0.00095312501071021
0.0140590630471706 0.0382534377276897 0.000968437467236072
0.0101315621286631 0.0360600017011166 0.00248937518335879
0.0101278126239777 0.0361103117465973 0.00242562498897314
0.0101253129541874 0.0361624993383884 0.0023775000590831
0.0101240621879697 0.0362146869301796 0.00233218749053776
0.0101218745112419 0.0362665615975857 0.00229031243361533
0.0101206246763468 0.0363184362649918 0.00224656239151955
0.0101193748414516 0.0363728143274784 0.00220687501132488
0.0101175000891089 0.0364268757402897 0.00216812500730157
0.0101156253367662 0.0364799983799458 0.0021284376271069
0.0101143755018711 0.036534059792757 0.00208843755535781
0.0101109370589256 0.0365871898829937 0.00204593758098781
0.0101103121414781 0.0366399995982647 0.00200343760661781
0.0101096881553531 0.036694373935461 0.00196906249038875
0.0101075004786253 0.0367499999701977 0.0019393750699237
0.0140596879646182 0.038197498768568 0.00099312502425164
0.014061875641346 0.0381421893835068 0.00101812509819865
0.0140634374693036 0.0380868762731552 0.00104406254831702
0.014062499627471 0.0380299985408783 0.00105999992229044
0.0140640623867512 0.0379724986851215 0.0010762499878183
0.0140662500634789 0.0379156246781349 0.00109156256075948
0.0100481249392033 0.0368781238794327 0.000335624994477257
0.0100465621799231 0.0369221866130829 0.000250312499701977
0.0100465621799231 0.0369696877896786 0.000180937495315447
0.0100443754345179 0.0370156243443489 0.000108437503513414
0.0100412499159575 0.0370643772184849 4.56250018032733E-05
0.0100403130054474 0.0371153093874454 -2.81250004263711E-06
0.0100390622392297 0.0371668748557568 -4.74999978905544E-05
0.0100362505763769 0.0372181236743927 -9.62499980232678E-05
0.0100356256589293 0.0372703149914742 -0.000139062496600673
0.0100346868857741 0.0373234376311302 -0.000173749998793937
0.0100331250578165 0.0373778119683266 -0.000208437500987202
0.0100325001403689 0.0374309383332729 -0.000242812500800937
0.0100315632298589 0.0374846868216991 -0.000277187500614673
0.0100299995392561 0.0375378094613552 -0.000314062519464642
0.0100293746218085 0.0375918745994568 -0.00034562501241453
0.0100278127938509 0.0376450009644032 -0.000377812510123476
0.0100268749520183 0.0377000011503696 -0.000408749998314306
0.0100253121927381 0.0377540625631809 -0.000441249983850867
0.0100228125229478 0.037807185202837 -0.000478125002700835
0.01002062484622 0.0378603115677834 -0.000513750012032688
0.01001968793571 0.03791468963027 -0.000543124973773956
0.0100178131833673 0.0379678122699261 -0.000570937525480986
0.010015937499702 0.0380212515592575 -0.000601249979808927
0.0100153125822544 0.0380756258964539 -0.000631562492344528
0.0100153125822544 0.0381324999034405 -0.000653124996460974
0.0100146876648068 0.038187813013792 -0.000675625051371753
0.0100134368985891 0.0382431261241436 -0.000697812472935766
0.0100143747404218 0.0382984392344952 -0.000720312469638884
0.0100146876648068 0.0383546873927116 -0.000736874993890524
0.0100143747404218 0.0384103134274483 -0.000755312503315508
0.0100124999880791 0.038466565310955 -0.000774687505327165
0.0100106252357364 0.0385221876204014 -0.000795312516856939
0.0100084375590086 0.0385775007307529 -0.000820937508251518
0.0100084375590086 0.0386331267654896 -0.000840624968986958
0.0100096873939037 0.0386896841228008 -0.000859687512274832
0.0100100003182888 0.0387449972331524 -0.000877187470905483
0.0100093744695187 0.0388018749654293 -0.000890312483534217
0.010007499717176 0.0388584360480309 -0.000906249973922968
0.0100056249648333 0.0389168746769428 -0.000915937474928796
0.0100050000473857 0.0389734394848347 -0.000931249989662319
0.0100046871230006 0.0390321873128414 -0.000937499979045242
0.0100034372881055 0.039089061319828 -0.000951250025536865
0.010003125295043 0.0391478128731251 -0.000955937488470227
0.010003125295043 0.0392056219279766 -0.000964062521234155
0.010003125295043 0.0392653122544289 -0.000965312472544611
0.0100037502124906 0.0393250025808811 -0.000965624989476055
0.0100046871230006 0.0393837504088879 -0.000968437467236072
0.0140668759122491 0.0378593765199184 0.00111093744635582
0.0140690626576543 0.0378037504851818 0.00113812496419996
0.0104256244376302 0.0315996892750263 0.0086259376257658
0.0104250004515052 0.0316599979996681 0.00861250050365925
0.010424374602735 0.0317199975252151 0.00859843753278255
0.010424374602735 0.0317815616726875 0.00858843699097633
0.0104250004515052 0.0318403132259846 0.00857062544673681
0.0104250004515052 0.0318999998271465 0.00854781270027161
0.0104240626096725 0.0319599993526936 0.00853187497705221
0.0104212500154972 0.0320199988782406 0.00851624924689531
0.0104215620085597 0.0320793762803078 0.00849593710154295
0.0104193752631545 0.0321375019848347 0.0084703117609024
0.0104174995794892 0.0321959368884563 0.00844625011086464
0.0104162506759167 0.0322546884417534 0.0084237502887845
0.0104162506759167 0.0323149971663952 0.00840906240046024
0.010415312834084 0.0323740616440773 0.00838906317949295
0.0104159377515316 0.0324328131973743 0.00836968701332808
0.0104168746620417 0.0324931256473064 0.00835187546908855
0.0104184383526444 0.0325525030493736 0.00833156239241362
0.0104168746620417 0.0326109379529953 0.00831124931573868
0.0104159377515316 0.0326699987053871 0.00829312484711409
0.0104159377515316 0.0327299982309341 0.00827625021338463
0.010415312834084 0.0327903144061565 0.00826156232506037
0.010415312834084 0.0328518748283386 0.00825343746691942
0.0104128122329712 0.0329115651547909 0.00823562499135733
0.0104137500748038 0.0329696871340275 0.00820531230419874
0.0104143749922514 0.0330268740653992 0.00817812513560057
0.0104140620678663 0.0330862514674664 0.00816062558442354
0.0104121873155236 0.0331453122198582 0.00813968759030104
0.0104093756526709 0.0332043766975403 0.00811687484383583
0.0104062501341105 0.0332612507045269 0.00807843822985888
0.0104065630584955 0.0333115607500076 0.00800625048577785
0.0104049993678927 0.0333606265485287 0.0079331248998642
0.0104046883061528 0.0334143750369549 0.00788031239062548
0.0104037504643202 0.0334684364497662 0.0078303124755621
0.0104006249457598 0.0335246883332729 0.00779156247153878
0.0104009369388223 0.0335796885192394 0.00776062486693263
0.0103975003585219 0.0336328111588955 0.00770562514662743
0.0103934369981289 0.0336871854960918 0.00765562476590276
0.0103918751701713 0.0337412506341934 0.00760281225666404
0.0103900004178286 0.0337928123772144 0.00754218781366944
0.0103878127411008 0.0338440611958504 0.00747656263411045
0.0103853121399879 0.0338950008153915 0.00740843778476119
0.0103831253945827 0.0339453108608723 0.00733343744650483
0.0103806247934699 0.0339946858584881 0.00725562497973442
0.0103781251236796 0.0340428128838539 0.00717874988913536
0.0103759374469519 0.0340909399092197 0.00709406239911914
0.0103746876120567 0.0341406241059303 0.00701749976724386
0.0103721879422665 0.0341921895742416 0.00695218751206994
0.0103690624237061 0.0342443734407425 0.00688968738541007
0.0103662498295307 0.0342949964106083 0.00682624988257885
0.0103628123179078 0.0343471877276897 0.00677312538027763
0.0103599997237325 0.0344003140926361 0.00672531267628074
0.0103584378957748 0.0344546884298325 0.00668124994263053
0.0103546874597669 0.0345099978148937 0.00663874996826053
0.0103518748655915 0.0345653109252453 0.00659937458112836
0.0103506250306964 0.0346225015819073 0.00656624976545572
0.010351249948144 0.0346793755888939 0.00653749983757734
0.0103543745353818 0.0347331240773201 0.00649812491610646
0.0103506250306964 0.0347896888852119 0.00646218750625849
0.010347499512136 0.0348443761467934 0.00642156274989247
0.0103453118354082 0.0348990634083748 0.00637437496334314
0.0103440629318357 0.0349518731236458 0.00632187491282821
0.010343125090003 0.0350037515163422 0.00626437505707145
0.0103428121656179 0.0350578129291534 0.00622031278908253
0.0103425001725554 0.0351121872663498 0.00617625005543232
0.0103409374132752 0.0351634360849857 0.00611718744039536
0.0103396875783801 0.0352171845734119 0.00607062503695488
0.0103390626609325 0.0352715589106083 0.0060224998742342
0.0103365620598197 0.0353237502276897 0.00597281288355589
0.0103331254795194 0.0353756248950958 0.00591687485575676
0.010330312885344 0.0354284346103668 0.0058609377592802
0.0103275002911687 0.035478126257658 0.00579875009134412
0.0103246876969934 0.0355278141796589 0.00572875002399087
0.0103218741714954 0.0355768725275993 0.00565250031650066
0.0103190625086427 0.0356224998831749 0.00556625006720424
0.0103149991482496 0.0356675013899803 0.00547062512487173
0.0103118754923344 0.0357125028967857 0.00537250004708767
0.0140693746507168 0.0377499982714653 0.00116999994497746
0.0140703124925494 0.0376949980854988 0.0011940625263378
0.0140712503343821 0.0376396849751472 0.00122500001452863
0.0140728121623397 0.0375834405422211 0.00125562504399568
0.014074687846005 0.0375299975275993 0.0012893748935312
0.0140759376809001 0.0374771878123283 0.00133093749172986
0.0140778124332428 0.037424374371767 0.00136937503702939
0.0140803130343556 0.0373709388077259 0.00140781246591359
0.014084062539041 0.0373190604150295 0.0014503124402836
0.0140853133052588 0.0372675023972988 0.00149749999400228
0.0140878120437264 0.0372153148055077 0.00154187495354563
0.0140912504866719 0.0371624976396561 0.00158500007819384
0.0140924993902445 0.0371103137731552 0.00162624998483807
0.0102146873250604 0.0360509380698204 0.00243906257674098
0.0102121876552701 0.0361024998128414 0.00238000019453466
0.0102093750610948 0.0361546874046326 0.0023315625730902
0.0102062504738569 0.0362053103744984 0.00227968744002283
0.0102037498727441 0.0362578108906746 0.00223874999210238
0.0102040627971292 0.0363118760287762 0.00220437510870397
0.0102025000378489 0.0363665632903576 0.002167500089854
0.0101993754506111 0.0364199988543987 0.00212906231172383
0.0101996883749962 0.036472499370575 0.00208625011146069
0.0101981246843934 0.0365262478590012 0.00204281252808869
0.0101956250146031 0.0365803092718124 0.00200593750923872
0.0101950000971556 0.036633126437664 0.00196718750521541
0.010194375179708 0.0366881266236305 0.0019349999492988
0.0101918755099177 0.0367446877062321 0.00190906249918044
0.0140946870669723 0.037057813256979 0.00167156255338341
0.0140971867367625 0.037007499486208 0.00172656250651926
0.0140981255099177 0.0369571894407272 0.00177750003058463
0.014100625179708 0.0369049981236458 0.00182562496047467
0.014104999601841 0.03685312718153 0.00187249993905425
0.0141087500378489 0.0368018746376038 0.00191750004887581
0.0101368753239512 0.036887813359499 0.000390625005820766
0.0101365623995662 0.0369318723678589 0.000302187516354024
0.0101346876472235 0.0369774997234344 0.000226562493480742
0.010130625218153 0.0370228104293346 0.000152187494677491
0.0101271877065301 0.0370709374547005 8.56249971548095E-05
0.0101250000298023 0.0371206253767014 2.81249995168764E-05
0.0101228123530746 0.0371712483465672 -2.25000003410969E-05
0.0101203126832843 0.0372234396636486 -6.46874977974221E-05
0.0101203126832843 0.0372775010764599 -9.93749999906868E-05
0.0101203126832843 0.0373321883380413 -0.000129687497974373
0.0101193748414516 0.0373865626752377 -0.00016187499568332
0.0101175000891089 0.0374390631914139 -0.000198749999981374
0.0101159373298287 0.0374921858310699 -0.000235312501899898
0.0101149994879961 0.0375453121960163 -0.000274062505923212
0.0101143755018711 0.0375996865332127 -0.000303750013699755
0.0101121878251433 0.037652812898159 -0.000335312477545813
0.0101106250658631 0.0377068743109703 -0.000369374989531934
0.0101096881553531 0.0377603098750114 -0.00040374998934567
0.0101075004786253 0.037812814116478 -0.000443124998128042
0.0101053128018975 0.037865936756134 -0.000478749978356063
0.0101049998775125 0.0379209369421005 -0.000504687486682087
0.0101049998775125 0.0379768759012222 -0.000525312498211861
0.0101040620356798 0.0380315631628036 -0.00055093748960644
0.0101025002077222 0.0380849987268448 -0.000581875036004931
0.0101018752902746 0.0381403118371964 -0.000608124944847077
0.010100937448442 0.0381971895694733 -0.000625937536824495
0.0101012494415045 0.0382537506520748 -0.00064531248062849
0.0101006254553795 0.0383090637624264 -0.00066937500378117
0.0100996876135468 0.0383631251752377 -0.000695625029038638
0.0100996876135468 0.038417499512434 -0.000718124967534095
0.0100990626960993 0.0384728126227856 -0.000740625022444874
0.0100965620949864 0.0385284386575222 -0.000763437536079437
0.0100953122600913 0.0385846868157387 -0.000783749972470105
0.0100946873426437 0.0386409386992455 -0.000801875023171306
0.0100950002670288 0.0386971905827522 -0.000821250025182962
0.0100946873426437 0.0387512519955635 -0.000842499954160303
0.0100931255146861 0.0388081260025501 -0.000852812547236681
0.010092499665916 0.0388656221330166 -0.000865312526002526
0.0100918747484684 0.0389243736863136 -0.00087843753863126
0.0100903129205108 0.0389806255698204 -0.000897187448572367
0.0100903129205108 0.0390396863222122 -0.000902187544852495
0.0100899999961257 0.0390978120267391 -0.000908749992959201
0.0100896870717406 0.0391565635800362 -0.000912187504582107
0.0100896870717406 0.0392134375870228 -0.00092218752251938
0.0100896870717406 0.0392728112637997 -0.000924687483347952
0.0100903129205108 0.0393321886658669 -0.000927812536247075
0.0100918747484684 0.0393906235694885 -0.000929999980144203
0.0141115626320243 0.0367499999701977 0.00196312507614493
0.0141125004738569 0.0366971902549267 0.00201031262986362
0.0141143752261996 0.0366431251168251 0.00204718764871359
0.010512188076973 0.0316003113985062 0.00862812530249357
0.0105106253176928 0.0316615626215935 0.00861781183630228
0.0105103123933077 0.0317212492227554 0.00860406178981066
0.0105112493038177 0.0317821875214577 0.00859343726187944
0.0105137499049306 0.0318409353494644 0.00857593771070242
0.0105159375816584 0.0319009386003017 0.00855718739330769
0.0105146877467632 0.0319621860980988 0.00854531303048134
0.0105125000700355 0.0320221856236458 0.00853031221777201
0.0105128129944205 0.0320806242525578 0.0085074994713068
0.0105115622282028 0.0321399979293346 0.00848562549799681
0.0105096874758601 0.0321990624070168 0.00846343673765659
0.0105078127235174 0.0322565622627735 0.00843593757599592
0.0105081256479025 0.0323168747127056 0.00842281244695187
0.0105053130537271 0.0323759391903877 0.00840343721210957
0.0105043752118945 0.0324353128671646 0.0083849998190999
0.0105031253769994 0.032496877014637 0.00837406236678362
0.0105018746107817 0.0325571857392788 0.00835968740284443
0.0105021875351667 0.0326162502169609 0.0083443745970726
0.0105012506246567 0.0326749980449677 0.00832218769937754
0.0105006247758865 0.0327346883714199 0.00830562505871058
0.0105021875351667 0.0327949970960617 0.00829218793660402
0.0105031253769994 0.0328568778932095 0.00828468706458807
0.0105018746107817 0.0329168736934662 0.00826937519013882
0.0105028124526143 0.0329743772745132 0.00823906250298023
0.0105024995282292 0.0330309383571148 0.00820968765765429
0.0105028124526143 0.0330906249582767 0.00819468777626753
0.0105018746107817 0.0331518761813641 0.00818375032395124
0.0104987500235438 0.0332112498581409 0.00816125050187111
0.0104971872642636 0.0332668758928776 0.00811781175434589
0.0104965632781386 0.0333181284368038 0.00805000029504299
0.0104946866631508 0.0333684384822845 0.00798312481492758
0.0104946866631508 0.0334228128194809 0.0079349996522069
0.0104924999177456 0.0334787480533123 0.00789281260222197
0.0104887504130602 0.0335343740880489 0.00785375013947487
0.01048812456429 0.0335893742740154 0.00781718734651804
0.0104868747293949 0.0336425006389618 0.00776437530294061
0.0104831242933869 0.0336956270039082 0.00771625014021993
0.0104809375479817 0.0337490625679493 0.00766375008970499
0.0104793747887015 0.0338021889328957 0.00760750006884336
0.0104771871119738 0.0338540598750114 0.00754406256601214
0.0104737505316734 0.033906877040863 0.00748124998062849
0.0104737505316734 0.0339575000107288 0.00741093745455146
0.0104718748480082 0.0340071879327297 0.00733718741685152
0.0104693742468953 0.0340546891093254 0.00725718727335334
0.0104671875014901 0.0341024994850159 0.00717031257227063
0.0104646869003773 0.0341506227850914 0.00708500016480684
0.0104603124782443 0.0342009402811527 0.00700906245037913
0.0104559371247888 0.0342524982988834 0.00694062514230609
0.010453749448061 0.0343028120696545 0.00687531242147088
0.0104518746957183 0.0343537479639053 0.00681562535464764
0.0104490621015429 0.0344059355556965 0.00675812503322959
0.0104471873492002 0.0344603136181831 0.00670937495306134
0.0104434378445148 0.0345153138041496 0.00666687497869134
0.010440937243402 0.034570001065731 0.00662624975666404
0.0104396874085069 0.0346256271004677 0.00658781221136451
0.0104381246492267 0.0346818715333939 0.0065506249666214
0.0104384375736117 0.0347359403967857 0.00650968728587031
0.0104359379038215 0.0347918756306171 0.00647156219929457
0.0104340631514788 0.0348456278443336 0.00642718747258186
0.0104328123852611 0.03490000218153 0.00638000015169382
0.0104337502270937 0.0349534377455711 0.00633312528952956
0.0104328123852611 0.0350071862339973 0.00628531258553267
0.010431875474751 0.0350615605711937 0.00623999955132604
0.0104293748736382 0.0351137518882751 0.00618531228974462
0.0104262502864003 0.0351631231606007 0.00611656252294779
0.0104250004515052 0.035216249525547 0.00606937520205975
0.0104234367609024 0.0352706275880337 0.0060221878811717
0.0104209370911121 0.0353237502276897 0.00597593747079372
0.0104193752631545 0.0353771857917309 0.00592593755573034
0.0104190623387694 0.0354303121566772 0.00587281212210655
0.010415312834084 0.0354815647006035 0.00581406243145466
0.0104128122329712 0.0355315618216991 0.0057478123344481
0.0104103125631809 0.035579688847065 0.00566750019788742
0.0104059372097254 0.0356249995529652 0.00557656260207295
0.0104012498632073 0.0356703102588654 0.00548437517136335
0.0103981243446469 0.0357143729925156 0.00538218719884753
0.01411750074476 0.0365921854972839 0.00209437496960163
0.0141199994832277 0.0365400016307831 0.00214093760587275
0.0141225000843406 0.0364856272935867 0.00218781246803701
0.0141253126785159 0.0364334359765053 0.00223250011913478
0.0141287501901388 0.0363818742334843 0.00227718753740191
0.014130312949419 0.0363281257450581 0.00232343748211861
0.0141321877017617 0.0362756215035915 0.00237124995328486
0.0141340624541044 0.0362237505614758 0.00241156248375773
0.0141334375366569 0.036167811602354 0.00244187493808568
0.0141356252133846 0.0361128114163876 0.00248000002466142
0.0141384368762374 0.0360606238245964 0.0025237500667572
0.0141425002366304 0.0360090620815754 0.00256812502630055
0.0141443749889731 0.0359553098678589 0.0026096876244992
0.0102971876040101 0.0360431261360645 0.00239656260237098
0.0102949999272823 0.0360950008034706 0.00233999988995492
0.0102931251749396 0.0361468717455864 0.00228843768127263
0.0102912504225969 0.0361962504684925 0.00222999998368323
0.0102881249040365 0.0362484343349934 0.00218593748286366
0.010287499986589 0.0363031253218651 0.00215718755498528
0.0102868750691414 0.0363581255078316 0.00212593749165535
0.0102856252342463 0.0364121869206429 0.00209093769080937
0.0102865630760789 0.0364659391343594 0.00205531250685453
0.0102843753993511 0.0365215614438057 0.00201843748800457
0.0102818747982383 0.0365762487053871 0.00198374991305172
0.0102796880528331 0.0366284362971783 0.00194281246513128
0.0102775003761053 0.0366828106343746 0.00190906249918044
0.01027468778193 0.0367381237447262 0.00187781255226582
0.0102693745866418 0.0367921851575375 0.0018428125185892
0.0141471875831485 0.035903126001358 0.00266156252473593
0.0141499992460012 0.035854060202837 0.00272406241856515
0.0141537506133318 0.0358043760061264 0.00278625008650124
0.0141553124412894 0.03575249761343 0.00284125003963709
0.0141590619459748 0.0357028134167194 0.00290500000119209
0.0102228131145239 0.036896251142025 0.000438749993918464
0.010223750025034 0.0369399972259998 0.000346249988069758
0.0102215623483062 0.0369850024580956 0.000266250019194558
0.0102171879261732 0.0370309390127659 0.000193749991012737
0.0102131254971027 0.0370796881616116 0.000132187502458692
0.0102103129029274 0.0371300019323826 7.75000007706694E-05
0.0102081252261996 0.0371799990534782 2.50000011874363E-05
0.0102059375494719 0.0372321903705597 -1.78124992089579E-05
0.0102068744599819 0.0372853130102158 -5.46875016880222E-05
0.0102068744599819 0.0373396873474121 -8.93749966053292E-05
0.0102049997076392 0.0373928099870682 -0.000131249995320104
0.0102031249552965 0.0374440625309944 -0.000171562496689148
0.0102018751204014 0.0374981239438057 -0.000201250004465692
0.0102003123611212 0.0375528112053871 -0.000232187492656521
0.0101981246843934 0.0376071892678738 -0.000264687521848828
0.0101959370076656 0.0376599989831448 -0.000299687497317791
0.0101953120902181 0.0377131216228008 -0.00033281248761341
0.0101946881040931 0.0377668775618076 -0.000366249994840473
0.0101928133517504 0.0378203131258488 -0.000402187491999939
0.0101909367367625 0.0378750003874302 -0.000431874999776483
0.0101906247437 0.0379296876490116 -0.000458750000689179
0.0101915625855327 0.0379846878349781 -0.000484687509015203
0.0101903127506375 0.0380393750965595 -0.000510937534272671
0.0101878130808473 0.0380931235849857 -0.000540624954737723
0.0101878130808473 0.0381481237709522 -0.000565625028684735
0.0101871872320771 0.0382046885788441 -0.000584687455557287
0.0101875001564622 0.0382609367370605 -0.00060374999884516
0.0101865623146296 0.0383175015449524 -0.000623749976512045
0.0101837497204542 0.0383718758821487 -0.000653124996460974
0.0101831248030066 0.03842593729496 -0.000675937451887876
0.0101824998855591 0.0384809374809265 -0.00069656252162531
0.0101800002157688 0.038537185639143 -0.000717187533155084
0.0101815620437264 0.0385937504470348 -0.000733749999199063
0.0101806251332164 0.0386512503027916 -0.000749374972656369
0.0101803122088313 0.0387068763375282 -0.000769999984186143
0.0101796872913837 0.0387603119015694 -0.000796250009443611
0.0101781254634261 0.0388175025582314 -0.000809062505140901
0.010177812539041 0.0388749986886978 -0.000821562542114407
0.010177499614656 0.0389321856200695 -0.000836250022985041
0.0101762507110834 0.0389887504279613 -0.000850624986924231
0.0101768746972084 0.0390478149056435 -0.00085812498582527
0.0101771876215935 0.0391068756580353 -0.000861562497448176
0.0101756248623133 0.0391650013625622 -0.000866874994244426
0.0101753119379282 0.0392225012183189 -0.000875312485732138
0.0101756248623133 0.0392818748950958 -0.000877187470905483
0.0101768746972084 0.0393403135240078 -0.000881874992046505
0.0101771876215935 0.0393984392285347 -0.000889687449671328
0.0141618745401502 0.0356543734669685 0.00297000003047287
0.0141646871343255 0.0356059372425079 0.00304218754172325
0.0106021873652935 0.0315406247973442 0.0086474996060133
0.0106000006198883 0.0316003113985062 0.00862843729555607
0.0105978129431605 0.0316621884703636 0.00861937552690506
0.0105978129431605 0.0317237488925457 0.00861500017344952
0.0105984369292855 0.0317843742668629 0.0086081251502037
0.0105987498536706 0.0318440645933151 0.00859468709677458
0.0106012495234609 0.031904686242342 0.00858156196773052
0.0106021873652935 0.0319649986922741 0.00856531225144863
0.0106021873652935 0.0320243760943413 0.0085446871817112
0.0106034372001886 0.0320828147232533 0.00852375011891127
0.010601875372231 0.0321425013244152 0.00850499980151653
0.0105993747711182 0.0322021879255772 0.00848687440156937
0.0105975000187755 0.0322599969804287 0.00846000015735626
0.0105968751013279 0.032320000231266 0.008445312269032
0.010593437589705 0.0323790609836578 0.0084221875295043
0.0105928126722574 0.03243812546134 0.00840468797832727
0.0105918748304248 0.032499685883522 0.00839531235396862
0.0105903130024672 0.0325596891343594 0.0083793755620718
0.0105903130024672 0.0326187498867512 0.00836375076323748
0.0105890622362494 0.032677810639143 0.0083406250923872
0.0105868745595217 0.0327375009655952 0.00832406245172024
0.0105893742293119 0.0327978134155273 0.00830843765288591
0.0105912508442998 0.0328596867620945 0.00830312538892031
0.0105893742293119 0.0329196900129318 0.00828937534242868
0.0105906249955297 0.0329778119921684 0.00826375000178814
0.0105900000780821 0.0330353118479252 0.00823906250298023
0.0105912508442998 0.0330956280231476 0.00822874996811152
0.0105912508442998 0.0331565625965595 0.00821875035762787
0.0105890622362494 0.0332150012254715 0.00819750037044287
0.0105865625664592 0.0332721844315529 0.00816250033676624
0.0105834379792213 0.0333262495696545 0.00810687523335218
0.0105818752199411 0.0333774983882904 0.00804343819618225
0.0105834379792213 0.0334306247532368 0.00798968784511089
0.0105821872130036 0.0334859378635883 0.00794874969869852
0.0105793755501509 0.0335415601730347 0.00791031308472157
0.0105778118595481 0.0335981249809265 0.00786968786269426
0.0105771878734231 0.0336524993181229 0.00782437529414892
0.0105746882036328 0.0337071865797043 0.00778625020757318
0.0105715626850724 0.0337612479925156 0.00773781258612871
0.0105681251734495 0.0338143780827522 0.00768281286582351
0.0105665624141693 0.0338668748736382 0.00762312486767769
0.0105631249025464 0.0339193753898144 0.00756031228229403
0.0105624999850988 0.0339696891605854 0.00748562486842275
0.0105600003153086 0.034019373357296 0.00741000007838011
0.0105578126385808 0.0340662486851215 0.00732718734070659
0.0105565628036857 0.0341146886348724 0.00724093755707145
0.0105543751269579 0.034163124859333 0.00715500023216009
0.0105503117665648 0.0342124998569489 0.00707843713462353
0.0105459373444319 0.0342631265521049 0.007007812615484
0.0105443755164742 0.0343131273984909 0.0069387499243021
0.010542812757194 0.0343643762171268 0.00687624979764223
0.0105412499979138 0.0344153121113777 0.00681374967098236
0.010538125410676 0.0344684384763241 0.00675718719139695
0.0105349998921156 0.0345224998891354 0.00670781219378114
0.0105321872979403 0.0345756262540817 0.00666187470778823
0.0105299996212125 0.0346303135156631 0.00661875028163195
0.0105274999514222 0.0346856229007244 0.00657281232997775
0.0105268741026521 0.0347403101623058 0.00653687492012978
0.0105237504467368 0.0347949974238873 0.00649499986320734
0.0105196880176663 0.0348481237888336 0.00644624978303909
0.0105190621688962 0.0349025018513203 0.00639750016853213
0.0105218756943941 0.0349565632641315 0.00635312497615814
0.010521562770009 0.0350096896290779 0.00630406243726611
0.0105196880176663 0.0350624993443489 0.00624718749895692
0.0105156246572733 0.0351137518882751 0.00618468783795834
0.0105128129944205 0.0351640619337559 0.00612312508746982
0.0105125000700355 0.0352196879684925 0.00608812505379319
0.0105112493038177 0.0352743752300739 0.00604312494397163
0.0105071878060699 0.0353268720209599 0.00599374994635582
0.0105043752118945 0.0353796891868114 0.00594156282022595
0.0105053130537271 0.0354321859776974 0.00588343758136034
0.0105028124526143 0.0354824997484684 0.00581968715414405
0.0105018746107817 0.0355331264436245 0.00575968762859702
0.0105009377002716 0.0355818755924702 0.00568343745544553
0.0104968752712011 0.0356278121471405 0.00559218740090728
0.0104921879246831 0.035674374550581 0.00550218764692545
0.0104875005781651 0.0357181243598461 0.00539906276389956
0.0141671877354383 0.0355593748390675 0.00312249991111457
0.014168749563396 0.0355121865868568 0.00320187490433455
0.0141715621575713 0.0354681238532066 0.00330125004984438
0.0141774993389845 0.0354271903634071 0.00341374985873699
0.014355625025928 0.0352706275880337 0.00677249999716878
0.0144687499850988 0.0347374975681305 0.00915062520653009
0.0144728124141693 0.0346871875226498 0.00922187510877848
0.0144768748432398 0.0346346907317638 0.00928374938666821
0.0144799994304776 0.0345821864902973 0.00934031326323748
0.0144821871072054 0.0345268733799458 0.00938937440514565
0.014483124949038 0.0344731248915195 0.00944593735039234
0.0144843747839332 0.0344206243753433 0.00950312521308661
0.0144856255501509 0.0343668758869171 0.00955375004559755
0.0103806247934699 0.0360353142023087 0.00235093757510185
0.0103784371167421 0.0360875017940998 0.002295937621966
0.0103774992749095 0.0361393727362156 0.00224750000052154
0.0103753125295043 0.0361899994313717 0.00219406257383525
0.0103725008666515 0.0362424999475479 0.00215124990791082
0.0103709371760488 0.0362971872091293 0.00212249998003244
0.0103706242516637 0.0363518744707108 0.00208874978125095
0.0103718750178814 0.036405622959137 0.00205187522806227
0.0103718750178814 0.0364599972963333 0.00202031247317791
0.010368749499321 0.036515936255455 0.00198406260460615
0.0103659369051456 0.0365706235170364 0.00195031252223998
0.0103634372353554 0.0366250015795231 0.0019212500192225
0.0103609375655651 0.0366800017654896 0.00189343746751547
0.0103584378957748 0.0367353148758411 0.00186468742322177
0.0103571871295571 0.0367906279861927 0.00183593749534339
0.0144884372130036 0.0343106240034103 0.00959218759089708
0.0144918747246265 0.034255001693964 0.00964031182229519
0.0144946873188019 0.0341996885836124 0.00968281272798777
0.0144981248304248 0.0341443754732609 0.00972343701869249
0.0145028121769428 0.0340878143906593 0.00976062472909689
0.0103071872144938 0.0369053110480309 0.000489374971948564
0.0103075001388788 0.0369481220841408 0.000392812478821725
0.0103053124621511 0.0369931273162365 0.000310312520014122
0.0103028127923608 0.037040002644062 0.000240624998696148
0.0103000001981854 0.0370884351432323 0.000179687500349246
0.0102974995970726 0.0371390618383884 0.000125624996144325
0.01029656175524 0.0371887497603893 7.31249965610914E-05
0.0102931251749396 0.0372403115034103 2.71874996542465E-05
0.0102928122505546 0.0372931249439716 -1.06249999589636E-05
0.010292187333107 0.037347499281168 -4.37499984400347E-05
0.0102903125807643 0.0374015606939793 -8.3124999946449E-05
0.0102893756702542 0.0374531261622906 -0.000125312508316711
0.0102881249040365 0.0375071875751019 -0.00015624999650754
0.0102871879935265 0.0375618748366833 -0.000184999997145496
0.0102853123098612 0.0376153104007244 -0.000219374996959232
0.0102828117087483 0.0376674979925156 -0.000257812498603016
0.0102821877226233 0.0377203151583672 -0.000293437507934868
0.0102806249633431 0.0377737507224083 -0.00032906248816289
0.0102800000458956 0.0378281250596046 -0.000360625010216609
0.010279375128448 0.0378843769431114 -0.000382812489988282
0.0102775003761053 0.0379378125071526 -0.000414062495110556
0.0102775003761053 0.0379909351468086 -0.000444999983301386
0.0102765625342727 0.0380459353327751 -0.00047093749162741
0.0102734379470348 0.0381018742918968 -0.000496249995194376
0.0102737499400973 0.0381575003266335 -0.000518125016242266
0.0102728130295873 0.0382131226360798 -0.000541249988600612
0.0102728130295873 0.0382696874439716 -0.000559687498025596
0.0102725001052022 0.0383265614509583 -0.00057656253920868
0.0102703124284744 0.0383809357881546 -0.000602500047534704
0.0102700004354119 0.0384365618228912 -0.000621249957475811
0.0102696875110269 0.0384918749332428 -0.00064375001238659
0.0102674998342991 0.0385475009679794 -0.000666562526021153
0.0102690616622567 0.038604374974966 -0.000681249948684126
0.0102674998342991 0.0386603139340878 -0.000698437506798655
0.0102668749168515 0.0387153141200542 -0.00072218751301989
0.0102656250819564 0.0387690626084805 -0.000749062455724925
0.0102650001645088 0.0388271883130074 -0.000759374990593642
0.0102646872401237 0.0388846881687641 -0.000772500003222376
0.0102646872401237 0.0389409363269806 -0.000791249971371144
0.0102637503296137 0.0389993749558926 -0.000799062487203628
0.0102631254121661 0.0390575006604195 -0.000808749988209456
0.0102637503296137 0.0391156226396561 -0.000816250045318156
0.010262499563396 0.0391731262207031 -0.000826562521979213
0.0102621875703335 0.0392306260764599 -0.000834375037811697
0.0102621875703335 0.0392899997532368 -0.000836874998640269
0.010262499563396 0.039349377155304 -0.000839062500745058
0.0102621875703335 0.0394078157842159 -0.000847500050440431
0.0145015623420477 0.0340287499129772 0.00978718791157007
0.0145021881908178 0.0339712500572205 0.00981906242668629
0.010691249743104 0.0315418764948845 0.00865281280130148
0.0106881242245436 0.0316006243228912 0.0086278123781085
0.0106856254860759 0.0316609367728233 0.00861375033855438
0.0106846876442432 0.0317228138446808 0.00861031282693148
0.0106834378093481 0.0317831262946129 0.00860406178981066
0.0106828128919005 0.0318440645933151 0.00859531201422215
0.0106843747198582 0.0319065637886524 0.00859343726187944
0.010686875320971 0.0319671891629696 0.0085834376513958
0.0106878131628036 0.0320259369909763 0.00855937507003546
0.0106890620663762 0.0320853106677532 0.00853937491774559
0.0106878131628036 0.0321453139185905 0.00852187536656857
0.0106856254860759 0.0322046875953674 0.00850687548518181
0.0106850005686283 0.0322634391486645 0.00848499964922667
0.0106846876442432 0.0323228128254414 0.0084646875038743
0.010683124884963 0.032381247729063 0.00844062492251396
0.0106824999675155 0.0324406251311302 0.00842593796551228
0.0106812492012978 0.0325024984776974 0.00842093769460917
0.0106803122907877 0.0325634367763996 0.00841218791902065
0.0106796873733401 0.0326240621507168 0.00839906185865402
0.0106774996966124 0.0326825007796288 0.00837687496095896
0.0106750000268221 0.0327409356832504 0.0083584375679493
0.0106762507930398 0.0328009389340878 0.0083406250923872
0.0106790624558926 0.0328624993562698 0.00833593774586916
0.0106771877035499 0.0329224988818169 0.00831906218081713
0.0106759378686547 0.0329821892082691 0.00829781219363213
0.0106743741780519 0.0330409407615662 0.00827750004827976
0.0106750000268221 0.033101249486208 0.00826437491923571
0.0106753120198846 0.0331603139638901 0.00824343785643578
0.0106750000268221 0.0332181230187416 0.00821687467396259
0.0106734372675419 0.0332765616476536 0.00819062534719706
0.0106724994257092 0.0333321876823902 0.00814656261354685
0.0106718754395843 0.0333856232464314 0.0080962497740984
0.0106706246733665 0.0334406234323978 0.00805593747645617
0.010669999755919 0.0334971882402897 0.00802312511950731
0.0106681250035763 0.0335540622472763 0.00798999983817339
0.0106674991548061 0.033610001206398 0.00794500019401312
0.0106668751686811 0.033662810921669 0.00789093691855669
0.0106643754988909 0.0337168723344803 0.00784656219184399
0.0106603130698204 0.0337703116238117 0.00779468705877662
0.0106562497094274 0.0338234379887581 0.0077381250448525
0.0106549998745322 0.0338774994015694 0.00768218748271465
0.010652813129127 0.0339299999177456 0.00762187503278255
0.0106515623629093 0.0339809395372868 0.00755375018343329
0.0106481248512864 0.0340318754315376 0.00748124998062849
0.0106450002640486 0.0340796895325184 0.00740468734875321
0.0106431245803833 0.0341278128325939 0.00732031231746078
0.0106421867385507 0.0341765619814396 0.00723593775182962
0.0106409378349781 0.0342256240546703 0.00715749990195036
0.0106371883302927 0.0342759378254414 0.00708312494680285
0.0106346877291799 0.0343249998986721 0.00700624985620379
0.0106328120455146 0.0343750007450581 0.00693843746557832
0.0106318751350045 0.0344256237149239 0.00687718763947487
0.0106293754652143 0.034479059278965 0.00682093761861324
0.0106262499466538 0.0345318764448166 0.0067634372971952
0.0106225004419684 0.0345831252634525 0.00670718774199486
0.010619374923408 0.0346374996006489 0.00665937503799796
0.0106162503361702 0.0346924997866154 0.00661312462761998
0.01061468757689 0.0347468741238117 0.00657343771308661
0.0106112500652671 0.0348000004887581 0.00652062520384789
0.0106096882373095 0.0348525010049343 0.00646968744695187
0.0106093753129244 0.0349056236445904 0.00641437480226159
0.0106093753129244 0.0349584370851517 0.00636250013485551
0.0106081245467067 0.0350109376013279 0.00631125038489699
0.010606562718749 0.0350649990141392 0.00626406259834766
0.0106028132140636 0.0351184383034706 0.00621218746528029
0.0106003126129508 0.0351684391498566 0.00615218747407198
0.0105996876955032 0.0352237522602081 0.00610874965786934
0.0105971870943904 0.0352771878242493 0.00605718744918704
0.0105931255966425 0.0353287495672703 0.00600343756377697
0.0105900000780821 0.0353812500834465 0.00595093704760075
0.010588750243187 0.0354340635240078 0.00589281274005771
0.0105874994769692 0.0354840606451035 0.00583031261339784
0.0105874994769692 0.0355359390377998 0.00577343767508864
0.0105868745595217 0.0355846844613552 0.00569843780249357
0.010584375821054 0.0356303155422211 0.00560812512412667
0.0105815622955561 0.0356765650212765 0.00551499985158443
0.010576874949038 0.0357193760573864 0.00541093712672591
0.0145040629431605 0.0339131243526936 0.00984031334519386
0.0145056247711182 0.0338540598750114 0.00986187439411879
0.0145087502896786 0.033797811716795 0.00990625005215406
0.0145093742758036 0.0337406247854233 0.00994156301021576
0.0139568746089935 0.0395978130400181 0.000753437518142164
0.0139581253752112 0.0395378097891808 0.000749062455724925
0.0139581253752112 0.039477501064539 0.00075093749910593
0.0139565616846085 0.0394153147935867 0.000754374952521175
0.0139565616846085 0.0393553115427494 0.000756874971557409
0.0139562506228685 0.0392959378659725 0.000758124981075525
0.0139565616846085 0.0392371863126755 0.000762499985285103
0.0139584382995963 0.0391784347593784 0.000769687467254698
0.0104678124189377 0.0359815619885921 0.0023881250526756
0.0104665625840425 0.0360287502408028 0.00231593754142523
0.0104649998247623 0.0360796898603439 0.00225500017404556
0.0104637499898672 0.0361309349536896 0.0022056249435991
0.0104603124782443 0.0361825004220009 0.00215624994598329
0.0104581248015165 0.0362353138625622 0.0021143751218915
0.0104568749666214 0.0362896881997585 0.00208093738183379
0.0104556242004037 0.036344688385725 0.0020453124307096
0.0104568749666214 0.0363993756473064 0.0020150002092123
0.0104568749666214 0.0364550016820431 0.00199062493629754
0.0104556242004037 0.0365128144621849 0.00196562497876585
0.0104540623724461 0.0365671887993813 0.00193406245671213
0.0104512497782707 0.0366221889853477 0.00190718751400709
0.010448438115418 0.0366771891713142 0.00187750009354204
0.0104449996724725 0.0367321893572807 0.00184812501538545
0.0104431249201298 0.0367859378457069 0.00181249994784594
0.0104390624910593 0.0368384346365929 0.00176874990575016
0.013960313051939 0.0391199998557568 0.000779375026468188
0.013960313051939 0.0390621870756149 0.000785624957643449
0.0139600001275539 0.039002500474453 0.000787187542300671
0.0139590622857213 0.0389431267976761 0.000793124956544489
0.0139606250450015 0.0388849973678589 0.000800000037997961
0.0103928130120039 0.0369593724608421 0.000451562489615753
0.0103906253352761 0.0370028130710125 0.000360312493285164
0.0103890625759959 0.0370496846735477 0.000290625001071021
0.0103865619748831 0.0370978116989136 0.000228125005378388
0.0103840623050928 0.0371481254696846 0.000173749998793937
0.0103843742981553 0.0371990613639355 0.000125624996144325
0.010380937717855 0.0372503139078617 7.84375006332994E-05
0.0103796869516373 0.0373021885752678 3.71875030396041E-05
0.0103778121992946 0.037355937063694 1.87499995263352E-06
0.0103759374469519 0.0374099984765053 -3.5937500797445E-05
0.0103756245225668 0.0374625027179718 -7.46875011827797E-05
0.0103746876120567 0.0375156253576279 -0.000107812498754356
0.0103743756189942 0.0375699996948242 -0.000139374998980202
0.0103737497702241 0.0376240611076355 -0.000171874999068677
0.0103703122586012 0.0376759395003319 -0.000212187500437722
0.0103693753480911 0.0377300009131432 -0.000244687485974282
0.0103678125888109 0.0377846881747246 -0.000275312515441328
0.0103678125888109 0.0378387495875359 -0.000303124979836866
0.0103668747469783 0.0378943756222725 -0.000325625005643815
0.0103637501597404 0.0379478111863136 -0.000361874990630895
0.0103628123179078 0.0380006246268749 -0.000395000010030344
0.0103621874004602 0.0380553118884563 -0.00042187501094304
0.0103587498888373 0.038110937923193 -0.000446249992819503
0.0103584378957748 0.0381671860814095 -0.000467812496935949
0.0103581249713898 0.038222499191761 -0.000494062493089586
0.0103593748062849 0.0382781252264977 -0.000515312480274588
0.0103590618818998 0.0383349992334843 -0.000533124955836684
0.0103575000539422 0.0383903123438358 -0.000553749967366457
0.0103571871295571 0.0384456254541874 -0.00057125004241243
0.0103565622121096 0.0385006256401539 -0.000595312449149787
0.0103534376248717 0.0385562516748905 -0.000618125020992011
0.0103540625423193 0.0386140644550323 -0.000631250033620745
0.0103531247004867 0.0386706255376339 -0.000647187465801835
0.0103528127074242 0.0387265607714653 -0.000667812535539269
0.0103524997830391 0.0387806259095669 -0.00068906246451661
0.0103518748655915 0.0388374999165535 -0.000699999975040555
0.0103503121063113 0.0388946868479252 -0.000714062538463622
0.0103493751958013 0.0389506258070469 -0.00073437497485429
0.0103481253609061 0.039009690284729 -0.000743749958928674
0.010347499512136 0.0390678122639656 -0.000753750035073608
0.0103481253609061 0.0391268767416477 -0.000761250033974648
0.010347499512136 0.0391843765974045 -0.000772500003222376
0.010347499512136 0.0392403118312359 -0.000782187504228204
0.010347499512136 0.0392981246113777 -0.000791249971371144
0.010347499512136 0.0393578112125397 -0.000794375024270266
0.0103471865877509 0.0394174978137016 -0.000799062487203628
0.0139628127217293 0.0388271883130074 0.000817187479697168
0.013964687474072 0.0387696884572506 0.000826250005047768
0.0107793752104044 0.0315424986183643 0.00866062566637993
0.0107771875336766 0.0316021889448166 0.0086418753489852
0.0107746878638864 0.0316625013947487 0.0086278123781085
0.0107725001871586 0.0317240618169308 0.00861968751996756
0.0107706254348159 0.0317846871912479 0.00861281249672174
0.0107706254348159 0.0318462513387203 0.0086081251502037
0.010771875269711 0.0319074988365173 0.00860312487930059
0.0107728131115437 0.0319690629839897 0.00859687477350235
0.0107725001871586 0.0320290625095367 0.00858218781650066
0.0107731251046062 0.0320893749594688 0.00856718700379133
0.0107737500220537 0.0321487486362457 0.00854500010609627
0.0107725001871586 0.0322078131139278 0.00853312481194735
0.0107725001871586 0.0322687476873398 0.0085246879607439
0.0107731251046062 0.0323290638625622 0.00850781239569187
0.0107746878638864 0.0323871895670891 0.00848218705505133
0.0107746878638864 0.0324453115463257 0.00845593772828579
0.0107737500220537 0.0325071886181831 0.00845031253993511
0.0107721872627735 0.0325690619647503 0.00844781193882227
0.0107696875929832 0.0326293744146824 0.00843468774110079
0.0107656251639128 0.0326871871948242 0.00841093715280294
0.0107637504115701 0.0327468775212765 0.00839500036090612
0.0107646873220801 0.0328068733215332 0.00837812479585409
0.0107665620744228 0.0328671857714653 0.00836687441915274
0.0107653122395277 0.0329259373247623 0.00834000017493963
0.0107650002464652 0.0329871848225594 0.00832874979823828
0.0107637504115701 0.0330465622246265 0.00831281300634146
0.0107615627348423 0.0331053137779236 0.00829093717038631
0.0107609378173947 0.0331643745303154 0.00826718751341105
0.0107618747279048 0.0332221873104572 0.00823687482625246
0.0107618747279048 0.0332800000905991 0.00821249932050705
0.0107621876522899 0.0333374999463558 0.00818187557160854
0.0107615627348423 0.0333940610289574 0.00815062504261732
0.0107584372162819 0.0334512479603291 0.00812374986708164
0.010758750140667 0.0335068739950657 0.00808124989271164
0.0107574993744493 0.0335618741810322 0.00803343765437603
0.0107568753883243 0.0336162485182285 0.00798468757420778
0.0107546877115965 0.0336706228554249 0.00794093776494265
0.0107528120279312 0.0337256230413914 0.00789906270802021
0.0107500003650784 0.0337799973785877 0.0078515624627471
0.0107471877709031 0.0338346846401691 0.00780156208202243
0.0107450000941753 0.0338890627026558 0.00775093724951148
0.0107428124174476 0.0339418761432171 0.00769250001758337
0.0107406256720424 0.0339937508106232 0.00762937497347593
0.0107368743047118 0.0340443775057793 0.00755843752995133
0.0107331248000264 0.0340924970805645 0.00748687516897917
0.0107303122058511 0.0341399982571602 0.00739937508478761
0.0107284374535084 0.0341884382069111 0.00731156254187226
0.0107274996116757 0.0342371873557568 0.00722531275823712
0.0107249999418855 0.0342859365046024 0.00714343739673495
