# .PCD v0.7 - Point Cloud Data file format
VERSION 0.7
FIELDS x y z
SIZE 4 4 4
TYPE F F F
COUNT 1 1 1
WIDTH 828
HEIGHT 1
VIEWPOINT 0 0 0 1 0 0 0
POINTS 828
DATA ascii
0.0141059383749962 0.0390421859920025 0.00192656251601875
0.0141062494367361 0.0389815643429756 0.00192406249698251
0.0141046876087785 0.0389193780720234 0.00191437499597669
0.0141040617600083 0.0388562493026257 0.00190937495790422
0.0141040617600083 0.0387968756258488 0.00191218743566424
0.0141028128564358 0.0387371852993965 0.00191375007852912
0.0141024999320507 0.0386775024235249 0.00191531248856336
0.0102524999529123 0.0353918746113777 0.00352031248621643
0.0102500002831221 0.0354399979114532 0.00345218763686717
0.0102490624412894 0.0354900024831295 0.00338656269013882
0.0102471876889467 0.0355406254529953 0.00332656246609986
0.010245000012219 0.0355928130447865 0.00327437487430871
0.0102431252598763 0.0356456264853477 0.00322906253859401
0.0102425003424287 0.0357006266713142 0.00319468765519559
0.0102418744936585 0.0357553139328957 0.0031618750654161
0.0102393748238683 0.0358103141188622 0.00312593742273748
0.0102359373122454 0.0358653105795383 0.00310062500648201
0.0102353123947978 0.0359240621328354 0.00308031239546835
0.0102343745529652 0.0359815619885921 0.00306187500245869
0.01023312471807 0.0360384359955788 0.00304281269200146
0.0102337505668402 0.03609249740839 0.00300656235776842
0.0102324998006225 0.0361474975943565 0.00297375000081956
0.0102299991995096 0.0362018719315529 0.00294000003486872
0.0102225001901388 0.0362506248056889 0.00287156249396503
0.0141043746843934 0.0386171862483025 0.00191937491763383
0.0141062494367361 0.0385574996471405 0.00192562502343208
0.0141065623611212 0.0384975001215935 0.00192656251601875
0.0141068752855062 0.0384371876716614 0.00192750000860542
0.0101893749088049 0.0363837517797947 0.00192687497474253
0.0101875001564622 0.0364278107881546 0.00183624995406717
0.0101853124797344 0.0364775024354458 0.00176874990575016
0.0101828128099442 0.0365274995565414 0.00171156250871718
0.0101818749681115 0.0365781262516975 0.00165812508203089
0.0101809380576015 0.0366312488913536 0.00161593744996935
0.0101815620437264 0.0366865620017052 0.00158406246919185
0.0101800002157688 0.0367400012910366 0.00154812505934387
0.010177812539041 0.0367934368550777 0.00151468755211681
0.010177812539041 0.0368493758141994 0.00148374994751066
0.0101771876215935 0.0369053110480309 0.00146343756932765
0.0101771876215935 0.0369631238281727 0.00144968752283603
0.0101756248623133 0.0370165631175041 0.00141499994788319
0.0101743750274181 0.0370740629732609 0.00138531252741814
0.0101728122681379 0.0371287502348423 0.00135562499053776
0.0101706245914102 0.0371818728744984 0.00132093753200024
0.0101687498390675 0.0372396893799305 0.00130343751516193
0.0101675000041723 0.0372971892356873 0.00128812505863607
0.0101678119972348 0.0373525023460388 0.00126124999951571
0.0101678119972348 0.0374075025320053 0.00123531243298203
0.0101678119972348 0.0374631248414516 0.00121249991934747
0.0101675000041723 0.0375193729996681 0.00119375006761402
0.0101659372448921 0.0375753119587898 0.00117156258784235
0.0101681249216199 0.0376321859657764 0.00115124997682869
0.0101693756878376 0.037687499076128 0.001126250019297
0.0101678119972348 0.0377434380352497 0.00110687490087003
0.0101665621623397 0.0377996861934662 0.00108593748882413
0.010164687409997 0.037855938076973 0.00106437504291534
0.0101640624925494 0.0379140637814999 0.00105406250804663
0.0101625006645918 0.0379700027406216 0.00103031250182539
0.0101618748158216 0.0380253158509731 0.00100781244691461
0.010160312987864 0.0380818732082844 0.000988750020042062
0.0101606259122491 0.0381396859884262 0.000976249983068556
0.0101575003936887 0.0381968766450882 0.00095687503926456
0.010155625641346 0.0382550023496151 0.000934062467422336
0.0101549997925758 0.0383121855556965 0.000917187484446913
0.0101546877995133 0.0383681245148182 0.000899687525816262
0.0101531250402331 0.0384253114461899 0.000888437498360872
0.0101525001227856 0.0384828113019466 0.000871249998454005
0.0101525001227856 0.0385403148829937 0.000858749961480498
0.0101525001227856 0.0385981239378452 0.000846875016577542
0.0101525001227856 0.038655623793602 0.000833437487017363
0.0101521871984005 0.0387125015258789 0.000814062485005707
0.0101521871984005 0.0387700013816357 0.000801562506239861
0.0101506253704429 0.0388278104364872 0.000789374986197799
0.0101499995216727 0.0388875007629395 0.000783437513746321
0.0101496875286102 0.0389453135430813 0.000774062529671937
0.0101493746042252 0.0390031225979328 0.000765937496908009
0.0101478127762675 0.0390609353780746 0.000756874971557409
0.0101471869274974 0.0391203127801418 0.000749062455724925
0.0101468749344349 0.0391799993813038 0.00074562500230968
0.0101468749344349 0.0392381250858307 0.000738125003408641
0.0101456250995398 0.0392962507903576 0.000733437482267618
0.0101450001820922 0.0393559373915195 0.000730937463231385
0.0101456250995398 0.0394159406423569 0.00072750000981614
0.0101471869274974 0.0394781269133091 0.000731249980162829
0.0101471869274974 0.0395396873354912 0.00073281250661239
0.0101471869274974 0.0395999997854233 0.000733124965336174
0.0101474998518825 0.0396599993109703 0.000734062516130507
0.0101471869274974 0.0397203154861927 0.000735625042580068
0.0141068752855062 0.0383759401738644 0.00193156255409122
0.0141068752855062 0.0383190624415874 0.00194468745030463
0.0105518754571676 0.0312646850943565 0.0097056245431304
0.0105537502095103 0.0313206240534782 0.00966374948620796
0.0105521883815527 0.0313784368336201 0.0096274996176362
0.0105499997735023 0.0314375013113022 0.00960343703627586
0.0105496877804399 0.0314971879124641 0.00958031229674816
0.0105490628629923 0.031555313616991 0.00955437496304512
0.0105478120967746 0.0316143743693829 0.00953250005841255
0.0105487499386072 0.0316731259226799 0.00951124913990498
0.0105478120967746 0.0317328125238419 0.00949000008404255
0.0105475001037121 0.031793124973774 0.00947312545031309
0.0105471881106496 0.0318528115749359 0.00945500005036592
0.0105453124269843 0.031913124024868 0.00944375060498714
0.0105431247502565 0.0319731272757053 0.00942593719810247
0.0105418749153614 0.0320343747735023 0.00941281206905842
0.0105396872386336 0.0320940613746643 0.00939249992370605
0.0105365626513958 0.0321509353816509 0.00936125032603741
0.0105375004932284 0.032209686934948 0.00933843664824963
0.0105353128165007 0.0322684347629547 0.00931343715637922
0.0105337491258979 0.0323274992406368 0.00928781181573868
0.0105312503874302 0.0323878154158592 0.00927187502384186
0.0105325002223253 0.0324471890926361 0.00925218779593706
0.0105337491258979 0.0325068756937981 0.00924031250178814
0.0105306254699826 0.0325646847486496 0.00921125058084726
0.0105284377932549 0.032619372010231 0.00915999989956617
0.0105262501165271 0.0326712504029274 0.0090921875089407
0.0105256251990795 0.0327253118157387 0.00903499964624643
0.0105243753641844 0.0327812507748604 0.00899718794971704
0.010521249845624 0.0328390635550022 0.00896687526255846
0.0105221876874566 0.0328937508165836 0.00891812518239021
0.010521249845624 0.0329499989748001 0.00887781195342541
0.0105184372514486 0.0330056250095367 0.00883281230926514
0.0105187501758337 0.0330624990165234 0.00878937542438507
0.010516875423491 0.0331168733537197 0.00873843766748905
0.0105159375816584 0.0331693775951862 0.00867500063031912
0.010513124987483 0.0332206264138222 0.00860687531530857
0.0105112493038177 0.0332718752324581 0.00853406265377998
0.0105100004002452 0.033322811126709 0.0084612499922514
0.0105081256479025 0.0333746857941151 0.00839468743652105
0.0105065619572997 0.0334271900355816 0.00833625067025423
0.0105050001293421 0.0334796868264675 0.0082765631377697
0.0105028124526143 0.0335321873426437 0.00822125002741814
0.0104987500235438 0.03358468785882 0.00816156249493361
0.0104962503537536 0.033636562526226 0.00810031220316887
0.0104953125119209 0.0336912497878075 0.0080568753182888
0.0104940626770258 0.0337471887469292 0.00801437441259623
0.0104924999177456 0.0338025018572807 0.00796843785792589
0.010491875000298 0.0338562503457069 0.00792437512427568
0.0104896882548928 0.0339128114283085 0.00788718741387129
0.0104865627363324 0.0339700020849705 0.00785937532782555
0.0104840621352196 0.0340268760919571 0.00782312452793121
0.0104840621352196 0.0340815633535385 0.00778281269595027
0.01048718765378 0.0341378152370453 0.00775312539190054
0.0104859368875623 0.0341949984431267 0.00772312516346574
0.0104843750596046 0.0342512503266335 0.00768375024199486
0.0104815624654293 0.0343071855604649 0.007640624884516
0.0104775000363588 0.0343609377741814 0.00759250018745661
0.0104768751189113 0.0344137512147427 0.00753562478348613
0.0104778129607439 0.0344656258821487 0.00748312519863248
0.010478749871254 0.03451968729496 0.00743375020101666
0.0104756252840161 0.0345746874809265 0.00738562503829598
0.0104715619236231 0.034629687666893 0.00734374998137355
0.0104687502607703 0.0346834361553192 0.0072949999012053
0.0104678124189377 0.0347374975681305 0.00724281277507544
0.0104665625840425 0.0347896888852119 0.00718531245365739
0.0104649998247623 0.0348399989306927 0.00712343724444509
0.0104603124782443 0.0348921902477741 0.00706249987706542
0.0104562500491738 0.034944374114275 0.00700312526896596
0.0104553131386638 0.0349943749606609 0.0069353124126792
0.0104528125375509 0.0350421853363514 0.00685125030577183
0.0104503128677607 0.0350884348154068 0.00676093762740493
0.0104468744248152 0.0351337492465973 0.00666156224906445
0.0141068752855062 0.0382599979639053 0.00194937502965331
0.0141071872785687 0.0381996892392635 0.00195874995552003
0.0141087500378489 0.0381406247615814 0.00196812488138676
0.0141078131273389 0.0380828119814396 0.00197937502525747
0.0141078131273389 0.0380250029265881 0.00199281261302531
0.0141093749552965 0.037967499345541 0.00201125000603497
0.0141121875494719 0.0379103124141693 0.0020274999551475
0.0103356251493096 0.0353849977254868 0.00348156271502376
0.0103328125551343 0.0354331247508526 0.00341281248256564
0.0103309378027916 0.0354831255972385 0.00334718753583729
0.010329999960959 0.0355346873402596 0.00329406256787479
0.0103290621191263 0.0355871878564358 0.00324437487870455
0.0103275002911687 0.035640936344862 0.00320156244561076
0.0103271873667836 0.0356965623795986 0.00316687487065792
0.0103265624493361 0.0357503145933151 0.00313031254336238
0.0103249996900558 0.0358046889305115 0.00309187499806285
0.0103221870958805 0.0358587503433228 0.00306062516756356
0.0103203123435378 0.0359159409999847 0.0030334375333041
0.0103196874260902 0.0359737500548363 0.0030174998100847
0.0103184375911951 0.0360306240618229 0.00299937510862947
0.0103184375911951 0.0360856242477894 0.00297218747437
0.0103178126737475 0.0361421890556812 0.00294562499038875
0.0103162499144673 0.0361987501382828 0.00292062503285706
0.0103100007399917 0.0362503118813038 0.00286999996751547
0.0141137503087521 0.0378543734550476 0.00205156253650784
0.014113437384367 0.0377968735992908 0.00206281268037856
0.0141140623018146 0.037737812846899 0.00207656249403954
0.0141150001436472 0.0376815646886826 0.0020993750076741
0.0102734379470348 0.0363981239497662 0.00200437498278916
0.0102728130295873 0.0364393778145313 0.00190062494948506
0.0102721871808171 0.0364878103137016 0.00182406243402511
0.0102706253528595 0.0365378111600876 0.00176499993540347
0.0102706253528595 0.0365893729031086 0.00171687500551343
0.0102696875110269 0.0366421900689602 0.0016753125237301
0.0102696875110269 0.0366968773305416 0.00164312508422881
0.0102678127586842 0.0367503128945827 0.00160687498282641
0.010266249999404 0.036804374307394 0.00157437508460134
0.010266562923789 0.0368593744933605 0.00154093757737428
0.0102656250819564 0.0369140617549419 0.00151406251825392
0.0102650001645088 0.0369721874594688 0.00150093750562519
0.010262812487781 0.0370275005698204 0.00147562508936971
0.0102609377354383 0.037084061652422 0.001443124958314
0.0102603118866682 0.0371381267905235 0.00141156243626028
0.0102603118866682 0.03719312697649 0.00138437491841614
0.0102587500587106 0.0372518785297871 0.00137125002220273
0.0102559374645352 0.0373090617358685 0.00135656248312443
0.0102568753063679 0.03736437484622 0.00133406242821366
0.0102584371343255 0.0374193750321865 0.00131187494844198
0.0102584371343255 0.0374746844172478 0.00128906255122274
0.0102568753063679 0.0375303104519844 0.00126531254500151
0.0102553125470877 0.0375871881842613 0.00124343752395362
0.0102568753063679 0.037644375115633 0.0012193750590086
0.0102578122168779 0.0377000011503696 0.00119437498506159
0.0102546876296401 0.0377562493085861 0.00117187504656613
0.0102524999529123 0.0378109365701675 0.00114562502130866
0.0102503132075071 0.0378668755292892 0.00112312496639788
0.0102500002831221 0.037923127412796 0.00110281247179955
0.0102478126063943 0.0379793755710125 0.00107937504071742
0.0102475006133318 0.0380350016057491 0.00105718756094575
0.0102456249296665 0.0380906239151955 0.00103687506634742
0.010245000012219 0.0381474979221821 0.00102062500081956
0.0102428123354912 0.0382050015032291 0.00100156245753169
0.0102409375831485 0.0382625013589859 0.000975937466137111
0.0102403126657009 0.0383200012147427 0.00095999997574836
0.0102403126657009 0.0383768752217293 0.000944687461014837
0.0102393748238683 0.0384331233799458 0.000928437453694642
0.0102381249889731 0.0384903103113174 0.000911874987650663
0.0102384379133582 0.0385481268167496 0.000902187544852495
0.0102393748238683 0.0386065617203712 0.00089125003432855
0.0102396877482533 0.038664061576128 0.000877812504768372
0.0102393748238683 0.0387200005352497 0.000857500010170043
0.0102390618994832 0.0387771874666214 0.000843437504954636
0.0102368742227554 0.0388350002467632 0.000830312492325902
0.0102353123947978 0.038894060999155 0.000820000015664846
0.0102349994704127 0.0389521867036819 0.000808437529485673
0.0102343745529652 0.039009690284729 0.000797812535893172
0.0102321868762374 0.0390671864151955 0.000789062527474016
0.0102306250482798 0.0391249991953373 0.000778125016950071
0.0102309379726648 0.0391846895217896 0.00077281246194616
0.0102324998006225 0.0392443723976612 0.000770312501117587
0.0102318758144975 0.0393025018274784 0.000765624979976565
0.0102303121238947 0.039361871778965 0.000759687507525086
0.0102306250482798 0.0394209362566471 0.000754374952521175
0.0102318758144975 0.0394837483763695 0.000756874971557409
0.0102309379726648 0.039544690400362 0.000756249995902181
0.0102309379726648 0.0396046862006187 0.000756874971557409
0.0102318758144975 0.0396650023758411 0.000762187468353659
0.0102324998006225 0.039725624024868 0.000766250013839453
0.0141153121367097 0.0376249998807907 0.00212124991230667
0.0141159370541573 0.0375681258738041 0.00214218767359853
0.014117187820375 0.0375118739902973 0.00216281251050532
0.0106393750756979 0.0312656238675117 0.00970906298607588
0.010640624910593 0.0313234366476536 0.00967781245708466
0.0106412498280406 0.0313828140497208 0.00965406186878681
0.0106399999931455 0.0314428135752678 0.00963656231760979
0.010639688000083 0.0315025001764297 0.00961656309664249
0.0106393750756979 0.0315603129565716 0.00958843715488911
0.0106378123164177 0.0316184386610985 0.00956249982118607
0.0106384372338653 0.0316793732345104 0.00955031160265207
0.0106371883302927 0.0317396856844425 0.00953656248748302
0.0106368754059076 0.0317999981343746 0.0095193749293685
0.0106365624815226 0.0318600013852119 0.00950281228870153
0.0106346877291799 0.0319196879863739 0.00948312506079674
0.0106340628117323 0.0319790616631508 0.0094628119841218
0.0106325000524521 0.0320384353399277 0.009443124756217
0.0106318751350045 0.0320993773639202 0.00942874979227781
0.0106293754652143 0.0321584343910217 0.00941156316548586
0.0106281256303191 0.0322159379720688 0.00937812495976686
0.0106253130361438 0.0322740636765957 0.00934656243771315
0.0106246871873736 0.0323328115046024 0.0093209370970726
0.0106221875175834 0.0323921889066696 0.00930031202733517
0.0106206247583032 0.0324509404599667 0.00928031280636787
0.0106203127652407 0.0325121879577637 0.00927437469363213
0.010619374923408 0.0325715653598309 0.00925343669950962
0.0106212506070733 0.0326271876692772 0.00920843798667192
0.0106209376826882 0.0326800011098385 0.00914500001817942
0.010619061999023 0.0327328108251095 0.00908374972641468
0.0106165632605553 0.0327874980866909 0.00903875008225441
0.0106131248176098 0.0328446887433529 0.00900375004857779
0.0106134377419949 0.0328996889293194 0.00895281229168177
0.0106106251478195 0.0329550020396709 0.00890687480568886
0.0106081245467067 0.0330106243491173 0.00886499974876642
0.0106081245467067 0.0330684371292591 0.00882281176745892
0.010606249794364 0.0331209376454353 0.00876624975353479
0.0106034372001886 0.0331734381616116 0.00870499946177006
0.0106012495234609 0.0332265608012676 0.00864312425255775
0.0106015624478459 0.0332778133451939 0.00857562571763992
0.0106003126129508 0.0333284363150597 0.0085037499666214
0.0105990627780557 0.033380314707756 0.00843500066548586
0.0105956252664328 0.0334321856498718 0.00837062485516071
0.0105931255966425 0.033483125269413 0.00830624997615814
0.0105918748304248 0.0335353128612041 0.00824999995529652
0.0105900000780821 0.0335881225764751 0.00819093734025955
0.010588750243187 0.0336421877145767 0.008135000243783
0.0105862505733967 0.033696249127388 0.00808593723922968
0.0105828121304512 0.0337487496435642 0.00803531240671873
0.0105806244537234 0.0338031239807606 0.00798437464982271
0.0105796875432134 0.0338574983179569 0.0079368744045496
0.0105771878734231 0.0339131243526936 0.00789156276732683
0.0105743752792478 0.0339703150093555 0.00786312483251095
0.0105718746781349 0.0340271890163422 0.00782562512904406
0.0105709368363023 0.0340821892023087 0.00778625020757318
0.0105734374374151 0.0341384373605251 0.00775843765586615
0.0105718746781349 0.034196563065052 0.00773156248033047
0.0105699999257922 0.0342534370720387 0.0076937498524785
0.0105675002560019 0.0343093760311604 0.00765031250193715
0.0105653125792742 0.0343628115952015 0.0076015624217689
0.010563749819994 0.0344137512147427 0.00753687461838126
0.0105643747374415 0.0344656258821487 0.00748218735679984
0.0105646876618266 0.0345200002193451 0.00743437465280294
0.0105624999850988 0.0345740616321564 0.00738562503829598
0.0105596873909235 0.0346300005912781 0.00735062500461936
0.0105568747967482 0.0346862487494946 0.0073128123767674
0.0105546871200204 0.034740936011076 0.00726343737915158
0.0105534372851253 0.0347915627062321 0.0071993749588728
0.0105521883815527 0.0348406247794628 0.00713218748569489
0.0105496877804399 0.0348934382200241 0.00707125011831522
0.0105471881106496 0.0349465645849705 0.0070168748497963
0.0105462502688169 0.0349971875548363 0.00695500010624528
0.010542499832809 0.0350465625524521 0.00687531242147088
0.0105396872386336 0.0350918732583523 0.00678249960765243
0.0105349998921156 0.0351353101432323 0.00667593767866492
0.0141196874901652 0.0374549999833107 0.00218125013634562
0.0141206244006753 0.0373999997973442 0.00221156235784292
0.0141221871599555 0.0373443737626076 0.00223593763075769
0.0141228120774031 0.037286564707756 0.00225843745283782
0.0141243757680058 0.0372321903705597 0.00229093735106289
0.0141259375959635 0.0371784344315529 0.00232687499374151
0.0141290631145239 0.0371246859431267 0.00235656253062189
0.010419687256217 0.0353796891868114 0.00345125002786517
0.0104174995794892 0.035427812486887 0.00338031235150993
0.010414999909699 0.0354778133332729 0.00331312487833202
0.0104128122329712 0.035528440028429 0.00325812515802681
0.0104112504050136 0.0355812497437 0.00321125006303191
0.0104103125631809 0.0356368757784367 0.00317468727007508
0.0104099996387959 0.0356921888887882 0.00314124999567866
0.0104087498039007 0.0357449986040592 0.003101562615484
0.0104090627282858 0.0357996858656406 0.00306531228125095
0.0104071870446205 0.0358549989759922 0.00303656235337257
0.0104049993678927 0.0359121859073639 0.00301187485456467
0.0104049993678927 0.0359709374606609 0.00300125009380281
0.0104062501341105 0.0360265634953976 0.00298031256534159
0.0104059372097254 0.0360806249082088 0.00294656259939075
0.0104040624573827 0.0361362509429455 0.00291531253606081
0.0104018747806549 0.036192812025547 0.00288687483407557
0.0103975003585219 0.0362459383904934 0.00284593738615513
0.0103915622457862 0.036295622587204 0.00278312503360212
0.0141296871006489 0.0370693728327751 0.00238249986432493
0.0141306249424815 0.0370128117501736 0.00241031241603196
0.0141328126192093 0.0369584374129772 0.0024484375026077
0.014134687371552 0.0369046851992607 0.00248437491245568
0.0103575000539422 0.0364531241357327 0.00197156239300966
0.01035968773067 0.0365003123879433 0.00188781251199543
0.0103599997237325 0.036547813564539 0.00182218756526709
0.0103606255725026 0.0365981236100197 0.00177312502637506
0.0103584378957748 0.036650937050581 0.00173062505200505
0.0103575000539422 0.0367056243121624 0.00169468752574176
0.0103571871295571 0.0367599986493587 0.00166218751110137
0.0103562502190471 0.0368137508630753 0.00163031241390854
0.0103549994528294 0.0368687510490417 0.00160125002730638
0.0103543745353818 0.0369249992072582 0.00157500000204891
0.0103540625423193 0.0369821898639202 0.00155593757517636
0.0103518748655915 0.0370374992489815 0.00153406255412847
0.0103496871888638 0.037092812359333 0.00150250003207475
0.0103496871888638 0.0371478125452995 0.00147312495391816
0.0103506250306964 0.0372050032019615 0.00145468744449317
0.0103471865877509 0.0372618734836578 0.00143531255889684
0.010343125090003 0.0373174995183945 0.00141156243626028
0.0103425001725554 0.037372812628746 0.00138750008773059
0.0103428121656179 0.0374281220138073 0.0013656250666827
0.010343125090003 0.0374846868216991 0.00134593748953193
0.0103425001725554 0.0375399999320507 0.00131843751296401
0.010342188179493 0.0375968739390373 0.00129562499932945
0.0103418752551079 0.0376543737947941 0.0012725000269711
0.0103406244888902 0.0377099998295307 0.00124999997206032
0.0103381248190999 0.0377668775618076 0.00122937501873821
0.0103371879085898 0.0378218777477741 0.00120500009506941
0.0103359371423721 0.0378771871328354 0.00117999990470707
0.0103362500667572 0.037932500243187 0.00115531252231449
0.0103337494656444 0.0379878133535385 0.00112906249705702
0.0103340623900294 0.0380440652370453 0.0011081249685958
0.0103321876376867 0.0380996838212013 0.00108437507878989
0.010330312885344 0.038155622780323 0.00106281240005046
0.010329999960959 0.038212813436985 0.00104593753349036
0.0103290621191263 0.0382703132927418 0.00102249998599291
0.0103278122842312 0.0383275002241135 0.00100250006653368
0.0103268744423985 0.0383846908807755 0.000985000049695373
0.0103253126144409 0.0384418740868568 0.00097125000320375
0.0103249996900558 0.0384993739426136 0.000959062541369349
0.0103259375318885 0.0385565645992756 0.000943750026635826
0.010325625538826 0.0386128127574921 0.00092218752251938
0.0103246876969934 0.0386693775653839 0.000906249973922968
0.0103228120133281 0.0387249998748302 0.000888124981429428
0.0103218741714954 0.0387821868062019 0.00087312504183501
0.0103206252679229 0.0388396866619587 0.000857500010170043
0.0103199994191527 0.0388981252908707 0.000844062480609864
0.0103199994191527 0.0389568731188774 0.00083468749653548
0.01031812466681 0.0390149988234043 0.000822499976493418
0.0103159369900823 0.0390721894800663 0.000810312514659017
0.0103156249970198 0.0391284376382828 0.000796250009443611
0.0103171877563 0.0391884371638298 0.000794375024270266
0.0103190625086427 0.039249375462532 0.000797187502030283
0.0103178126737475 0.0393081232905388 0.000792812497820705
0.0103159369900823 0.0393671877682209 0.000785312498919666
0.0103168757632375 0.0394256263971329 0.000775937514845282
0.0103174997493625 0.0394874997437 0.000774687505327165
0.0103171877563 0.0395481251180172 0.000773437495809048
0.0103168757632375 0.0396081246435642 0.000774062529671937
0.0103162499144673 0.0396696887910366 0.000782812479883432
0.0103174997493625 0.0397309362888336 0.000792812497820705
0.0141359381377697 0.0368503108620644 0.00251875002868474
0.0141378128901124 0.0367949977517128 0.00255312491208315
0.0107284374535084 0.0312121864408255 0.00977062527090311
0.0107265627011657 0.0312709361314774 0.00974718760699034
0.0107274996116757 0.0313300006091595 0.00972500070929527
0.0107284374535084 0.0313900001347065 0.00970499962568283
0.0107278125360608 0.0314496867358685 0.0096843745559454
0.0107274996116757 0.0315093733370304 0.00966343749314547
0.0107268756255507 0.0315665639936924 0.00962781254202127
0.0107249999418855 0.031623438000679 0.00959187466651201
0.0107234371826053 0.0316843762993813 0.00957968737930059
0.0107228122651577 0.0317450016736984 0.00957093760371208
0.0107228122651577 0.0318062491714954 0.00955718662589788
0.0107225002720952 0.0318662486970425 0.00953999999910593
0.0107206245884299 0.0319246873259544 0.00951437465846539
0.0107215624302626 0.0319831259548664 0.00949218776077032
0.0107206245884299 0.0320424996316433 0.00946875009685755
0.0107215624302626 0.0321028120815754 0.00945374928414822
0.0107200006023049 0.0321631245315075 0.00944281276315451
0.0107190627604723 0.0322215631604195 0.00941281206905842
0.0107159372419119 0.0322787500917912 0.00937999971210957
0.0107150003314018 0.032338123768568 0.0093578128144145
0.0107131255790591 0.0323974974453449 0.00933468714356422
0.0107109379023314 0.032456248998642 0.00931375008076429
0.0107109379023314 0.0325178094208241 0.00930781289935112
0.0107115618884563 0.0325768738985062 0.00928874965757132
0.010712499730289 0.0326343774795532 0.00925812497735023
0.0107109379023314 0.0326890647411346 0.00920437555760145
0.010708125308156 0.0327403098344803 0.009132812730968
0.0107053127139807 0.0327934361994267 0.00907312519848347
0.0107028121128678 0.0328496843576431 0.00903406273573637
0.0107025001198053 0.0329053103923798 0.0089893750846386
0.0107006253674626 0.0329603105783463 0.00894281268119812
0.01069968752563 0.033016249537468 0.00890406221151352
0.0106990626081824 0.0330743752419949 0.00886375084519386
0.010695937089622 0.0331274978816509 0.00880968756973743
0.0106931244954467 0.0331800021231174 0.0087500000372529
0.0106921875849366 0.0332331247627735 0.00869156233966351
0.0106918755918741 0.0332853123545647 0.00862875021994114
0.0106899999082088 0.0333371870219707 0.00856124982237816
0.0106890620663762 0.0333881266415119 0.00848906207829714
0.0106856254860759 0.0334381237626076 0.00841656234115362
0.0106824999675155 0.0334884375333786 0.00834812503308058
0.0106806252151728 0.0335406251251698 0.00828624982386827
0.0106790624558926 0.033593125641346 0.00822500046342611
0.0106771877035499 0.0336471870541573 0.00816874951124191
0.0106734372675419 0.0337006263434887 0.00811687484383583
0.0106709375977516 0.0337531231343746 0.00806531216949224
0.010669375769794 0.0338071845471859 0.0080128125846386
0.0106674991548061 0.0338606275618076 0.00795718748122454
0.0106640625745058 0.0339156277477741 0.00790875032544136
0.0106609370559454 0.0339721888303757 0.00787312537431717
0.0106590623036027 0.034027811139822 0.007833749987185
0.0106581244617701 0.0340834371745586 0.00779437506571412
0.0106584373861551 0.0341396853327751 0.00776343746110797
0.0106562497094274 0.0341959372162819 0.00772875035181642
0.0106549998745322 0.0342518761754036 0.00768718775361776
0.0106537500396371 0.034307811409235 0.00764468777924776
0.0106543749570847 0.0343618728220463 0.00759468739852309
0.010652500204742 0.0344146862626076 0.00753968767821789
0.0106506254523993 0.0344674997031689 0.00749375019222498
0.0106499996036291 0.0345221869647503 0.00744968745857477
0.0106493746861815 0.0345765613019466 0.00740093737840652
0.0106468750163913 0.0346306264400482 0.00735375005751848
0.0106431245803833 0.0346856229007244 0.00730718765407801
0.0106412498280406 0.034739688038826 0.0072540626861155
0.0106415627524257 0.0347906276583672 0.00719187501817942
0.010640311986208 0.034841563552618 0.00713718729093671
0.0106371883302927 0.0348956249654293 0.00708468770608306
0.0106353117153049 0.0349474996328354 0.00702468724921346
0.0106340628117323 0.0349981226027012 0.00696031237021089
0.0106306243687868 0.0350487530231476 0.00688406219705939
0.0106290625408292 0.0350946895778179 0.0067950002849102
0.010623749345541 0.0351371876895428 0.00668468745425344
0.0141381258144975 0.0367418751120567 0.00258937501348555
0.0141406245529652 0.0366887524724007 0.00263031246140599
0.0141446879133582 0.0366362482309341 0.00267249997705221
0.0141487503424287 0.0365815609693527 0.00271499995142221
0.014151562936604 0.036531250923872 0.00276718754321337
0.0141518749296665 0.0364771895110607 0.00280656246468425
0.0105034373700619 0.0353753119707108 0.00342374993488193
0.0105018746107817 0.0354231260716915 0.00335124996490777
0.0104996869340539 0.0354743748903275 0.00329093751497567
0.0104981251060963 0.0355253145098686 0.00323874992318451
0.0104965632781386 0.0355778113007545 0.00319000007584691
0.0104953125119209 0.035632811486721 0.0031503124628216
0.0104946866631508 0.0356871858239174 0.00311406259424984
0.0104928119108081 0.0357387512922287 0.00307031255215406
0.0104924999177456 0.0357934385538101 0.00303593743592501
0.0104906251654029 0.0358499996364117 0.0030093751847744
0.0104884374886751 0.0359065644443035 0.0029828124679625
0.01048812456429 0.0359649993479252 0.00296937488019466
0.0104899993166327 0.036021251231432 0.00295000011101365
0.0104887504130602 0.0360771864652634 0.00292156240902841
0.0104862498119473 0.0361340641975403 0.0028978125192225
0.0104856248944998 0.036191251128912 0.0028756249230355
0.0104843750596046 0.0362446866929531 0.00284031243063509
0.0104809375479817 0.0362965613603592 0.00279093743301928
0.0141528127714992 0.0364218764007092 0.00284125003963709
0.0141549995169044 0.0363678112626076 0.00287874997593462
0.0141575001180172 0.0363140627741814 0.00291343755088747
0.0141599997878075 0.0362599976360798 0.00295468769036233
0.0104412501677871 0.0364684388041496 0.00205906247720122
0.0104459375143051 0.03651437535882 0.00196843757294118
0.0104471873492002 0.0365590639412403 0.00188750005327165
0.0104478122666478 0.0366087481379509 0.0018353124614805
0.0104468744248152 0.0366624966263771 0.00179687503259629
0.0104453125968575 0.0367175005376339 0.00176062504760921
0.01044468767941 0.0367721877992153 0.00172749999910593
0.0104428129270673 0.0368268750607967 0.00169906241353601
0.010440937243402 0.0368818752467632 0.00166906253434718
0.0104406252503395 0.0369371883571148 0.00163874996360391
0.0104399994015694 0.0369925014674664 0.00161156244575977
0.0104374997317791 0.0370475016534328 0.00158812501467764
0.0104356249794364 0.0371025018393993 0.00155937508679926
0.0104356249794364 0.037158127874136 0.00153437489643693
0.0104359379038215 0.0372159369289875 0.0015153125859797
0.0104328123852611 0.0372706279158592 0.00148874998558313
0.0104300007224083 0.0373256281018257 0.00145968748256564
0.010428125038743 0.0373818725347519 0.00143718754407018
0.0104284370318055 0.0374378114938736 0.00141749996691942
0.0104293748736382 0.0374940633773804 0.00139312504325062
0.010428125038743 0.0375481247901917 0.00136343750637025
0.0104275001212955 0.037603747099638 0.00133875000756234
0.0104259373620152 0.0376618765294552 0.00131562491878867
0.0104250004515052 0.0377178117632866 0.00129187502898276
0.0104231256991625 0.0377743765711784 0.00126968754921108
0.0104228127747774 0.0378300026059151 0.00124875002074987
0.0104224998503923 0.0378853119909763 0.00122156250290573
0.0104218749329448 0.037940938025713 0.00119500001892447
0.0104203131049871 0.0379953123629093 0.0011653124820441
0.010419687256217 0.0380506254732609 0.00114218750968575
0.0104174995794892 0.0381071902811527 0.00111937499605119
0.0104159377515316 0.0381646864116192 0.00110406253952533
0.0104165617376566 0.0382218733429909 0.00108937500044703
0.010415312834084 0.0382793731987476 0.00106656248681247
0.0104143749922514 0.0383349992334843 0.00104218744672835
0.0104125002399087 0.0383906252682209 0.00101937493309379
0.0104109374806285 0.0384474992752075 0.0010018750326708
0.0104103125631809 0.0385050028562546 0.000986250001005828
0.0104109374806285 0.038562186062336 0.000970937486272305
0.0104112504050136 0.0386174991726875 0.000948437489569187
0.0104096867144108 0.0386728122830391 0.000926874985452741
0.0104059372097254 0.0387284383177757 0.00090562499826774
0.0104043753817677 0.0387853123247623 0.000887812522705644
0.0104049993678927 0.0388431251049042 0.000876562495250255
0.0104056252166629 0.038902185857296 0.000868125003762543
0.0104065630584955 0.038960624486208 0.000860000029206276
0.0104049993678927 0.0390190631151199 0.000846562499646097
0.01040312461555 0.0390768721699715 0.000833750003948808
0.0104028126224875 0.0391337499022484 0.00082187500083819
0.0104034375399351 0.0391943752765656 0.000823125010356307
0.0104049993678927 0.0392550006508827 0.000827187497634441
0.0104043753817677 0.0393143780529499 0.000822187459561974
0.0104028126224875 0.0393725000321865 0.000814687518868595
0.01040312461555 0.0394306257367134 0.000805624993517995
0.01040312461555 0.0394924990832806 0.000804374983999878
0.01040312461555 0.0395537503063679 0.000804374983999878
0.01040312461555 0.0396134369075298 0.000803437491413206
0.0104028126224875 0.0396750010550022 0.000810312514659017
0.0104028126224875 0.0397371873259544 0.000823125010356307
0.0141621874645352 0.0362056232988834 0.00299718766473234
0.0141646871343255 0.0361525006592274 0.00303625012747943
0.0108193745836616 0.0312187504023314 0.00981437508016825
0.0108174998313189 0.0312787480652332 0.00979687459766865
0.0108181247487664 0.0313374996185303 0.00977656245231628
0.0108187505975366 0.0313968770205975 0.00975468754768372
0.0108171869069338 0.0314553119242191 0.00972531177103519
0.010814999230206 0.0315140634775162 0.00969500001519918
0.0108134374022484 0.0315706245601177 0.00965781230479479
0.0108118755742908 0.0316281244158745 0.00962312519550323
0.010810624808073 0.0316881239414215 0.00960531271994114
0.010810311883688 0.0317481234669685 0.00959156267344952
0.0108100008219481 0.0318084359169006 0.00957687478512526
0.0108090629801154 0.0318681262433529 0.00955687556415796
0.0108062494546175 0.0319278128445148 0.00953906215727329
0.0108071872964501 0.0319878123700619 0.0095249991863966
0.0108078131452203 0.0320478118956089 0.00950625073164701
0.0108090629801154 0.032108124345541 0.00949218776077032
0.0108084371313453 0.0321687497198582 0.00947812478989363
0.0108090629801154 0.0322271883487701 0.00944937486201525
0.0108078131452203 0.032285314053297 0.0094237495213747
0.0108068753033876 0.0323459357023239 0.00940781179815531
0.010805937461555 0.032404687255621 0.00938531197607517
0.0108043747022748 0.032464686781168 0.00936968717724085
0.0108043747022748 0.0325253158807755 0.00935562513768673
0.0108034368604422 0.0325815603137016 0.0093190623447299
0.0108040627092123 0.0326399989426136 0.00929249916225672
0.0108031257987022 0.0326965637505054 0.00925374962389469
0.0107996873557568 0.0327487476170063 0.00918749999254942
0.0107953129336238 0.0328003130853176 0.00911562517285347
0.010793125256896 0.0328553132712841 0.00906999967992306
0.0107928123325109 0.0329118780791759 0.00903249997645617
0.0107915624976158 0.0329675003886223 0.0089912498369813
0.0107899997383356 0.0330243743956089 0.00895624980330467
0.0107893757522106 0.0330815613269806 0.00891187507659197
0.0107868751510978 0.0331349968910217 0.00885843764990568
0.0107843754813075 0.0331884399056435 0.00880187470465899
0.0107825007289648 0.0332425013184547 0.00874843820929527
0.0107803121209145 0.0332949981093407 0.00868531223386526
0.0107784373685718 0.0333474986255169 0.00862250011414289
0.0107778133824468 0.0333990640938282 0.00855406280606985
0.010776249691844 0.0334484353661537 0.00848187506198883
0.0107728131115437 0.0334984362125397 0.00840812455862761
0.0107700005173683 0.0335496850311756 0.00833625067025423
0.0107668749988079 0.0336006246507168 0.00826718751341105
0.0107650002464652 0.033653125166893 0.00820374954491854
0.0107624996453524 0.0337071865797043 0.00815468747168779
0.0107609378173947 0.0337596908211708 0.00810375064611435
0.0107584372162819 0.0338128134608269 0.00804781261831522
0.0107571873813868 0.0338656231760979 0.00798968784511089
0.0107556246221066 0.0339199975132942 0.00793968793004751
0.0107528120279312 0.0339753106236458 0.0078943744301796
0.0107512501999736 0.0340306237339973 0.0078534372150898
0.0107496874406934 0.0340871885418892 0.0078143747523427
0.0107484376057982 0.0341428108513355 0.00778124993667006
0.0107456240803003 0.0342000015079975 0.00775281246751547
0.0107431253418326 0.0342565625905991 0.00771406246349216
0.0107425004243851 0.0343121886253357 0.00767374970018864
0.0107434373348951 0.0343656241893768 0.00761749967932701
0.0107409376651049 0.0344171859323978 0.00755343772470951
0.010737500153482 0.0344687514007092 0.0074987499974668
0.0107356254011393 0.0345231257379055 0.00745468772947788
0.0107346875593066 0.034578125923872 0.00740843778476119
0.0107324998825788 0.0346321873366833 0.00735812541097403
0.010729999281466 0.0346865616738796 0.00730906240642071
0.010729375295341 0.034739688038826 0.00725624989718199
0.0107296872884035 0.0347921885550022 0.00720187509432435
0.0107281245291233 0.0348437502980232 0.0071496875025332
0.0107234371826053 0.0348959378898144 0.00708843767642975
0.0107215624302626 0.0349478125572205 0.00702781230211258
0.0107200006023049 0.0349996872246265 0.00696843769401312
0.0107175000011921 0.0350500009953976 0.00689218752086163
0.0107159372419119 0.035096250474453 0.00680218730121851
0.0107103129848838 0.035138126462698 0.00669156247749925
0.0141668748110533 0.036100622266531 0.0030821873806417
0.0141696874052286 0.0360487513244152 0.0031290624756366
0.0141718750819564 0.0359931252896786 0.00316562503576279
0.0141740627586842 0.0359396860003471 0.00320406234823167
0.0141750006005168 0.0358868762850761 0.00324937514960766
0.0141759375110269 0.0358325019478798 0.0032931249588728
0.0105893742293119 0.0353718772530556 0.00340562500059605
0.0105856247246265 0.0354187525808811 0.00333187519572675
0.0105837499722838 0.0354703143239021 0.00327156251296401
0.0105834379792213 0.035522498190403 0.0032221875153482
0.0105809373781085 0.0355753153562546 0.00317562511190772
0.0105796875432134 0.0356296896934509 0.00313375005498528
0.0105790626257658 0.0356840640306473 0.00309625011868775
0.0105771878734231 0.0357359386980534 0.0030546875204891
0.0105771878734231 0.0357903130352497 0.0030218749307096
0.0105762500315905 0.0358474999666214 0.00299906264990568
0.0105740623548627 0.035904373973608 0.00297343754209578
0.0105731245130301 0.0359621904790401 0.00295437499880791
0.0105759371072054 0.0360187478363514 0.00293187494389713
0.0105756251141429 0.0360731221735477 0.00290093757212162
0.0105728125199676 0.0361287482082844 0.00287156249396503
0.0105718746781349 0.0361865609884262 0.00285156257450581
0.0105696879327297 0.0362421870231628 0.00282718753442168
0.0105668753385544 0.0362962484359741 0.0027896873652935
0.0105606252327561 0.0363453142344952 0.00272406241856515
0.0141778122633696 0.0357793718576431 0.00333625008352101
0.0141806248575449 0.0357265621423721 0.00337593746371567
0.0141828125342727 0.0356709361076355 0.0034109374973923
0.0105228126049042 0.0364843755960464 0.00214875000528991
0.0105265630409122 0.0365293733775616 0.00205500004813075
0.0105318743735552 0.0365734361112118 0.00196906249038875
0.010534062050283 0.0366228148341179 0.00191312504466623
0.0105346869677305 0.0366756245493889 0.00187000003643334
0.0105328122153878 0.0367296859622002 0.00182906247209758
0.0105321872979403 0.0367828123271465 0.00178812502417713
0.0105299996212125 0.036837812513113 0.00176031258888543
0.0105293747037649 0.0368925034999847 0.00173156254459172
0.0105290627107024 0.036947812885046 0.00170031248126179
0.0105271870270371 0.0370021872222424 0.00166562502272427
0.0105237504467368 0.0370571874082088 0.0016403126064688
0.0105224996805191 0.0371121875941753 0.00161062506958842
0.0105218756943941 0.0371675007045269 0.00158437504433095
0.0105190621688962 0.0372246839106083 0.0015606249216944
0.0105175003409386 0.0372796878218651 0.00153531250543892
0.010516875423491 0.0373346880078316 0.00150718749500811
0.0105156246572733 0.0373900011181831 0.00148187496233732
0.0105162495747209 0.0374462492763996 0.00145968748256564
0.010516875423491 0.0375024974346161 0.00143437506631017
0.0105150006711483 0.0375568717718124 0.00140562502201647
0.0105143748223782 0.037612184882164 0.0013796875718981
0.0105128129944205 0.037669375538826 0.00135468749795109
0.0105118751525879 0.0377249978482723 0.00133156252559274
0.0105100004002452 0.0377803109586239 0.00130312505643815
0.0105096874758601 0.0378368757665157 0.00128218741156161
0.0105090625584126 0.0378918759524822 0.00125531246885657
0.0105065619572997 0.0379462502896786 0.00122437498066574
0.0105062499642372 0.0380018763244152 0.00119874998927116
0.0105050001293421 0.0380568727850914 0.00117343745660037
0.0105028124526143 0.0381131246685982 0.00115062494296581
0.0105021875351667 0.0381712503731251 0.00113906257320195
0.0105021875351667 0.038228128105402 0.0011228125076741
0.010500312782824 0.0382862500846386 0.00110125006176531
0.0104996869340539 0.0383418723940849 0.00107687502168119
0.0104981251060963 0.0383968725800514 0.00105249998159707
0.0104987500235438 0.0384528115391731 0.00103031250182539
0.0104978121817112 0.03850968927145 0.00101031258236617
0.0104965632781386 0.0385668762028217 0.000995937502011657
0.0104956245049834 0.0386225022375584 0.0009750000317581
0.0104946866631508 0.0386778116226196 0.000950937508605421
0.0104928119108081 0.0387346893548965 0.000934687501285225
0.0104921879246831 0.0387906283140182 0.000915000040549785
0.010491875000298 0.0388481244444847 0.000899999984540045
0.010491875000298 0.0389068759977818 0.000890625000465661
0.010491875000298 0.0389643758535385 0.000879687489941716
0.0104915630072355 0.0390212498605251 0.000865000009071082
0.0104912500828505 0.0390803106129169 0.000857500010170043
0.0104912500828505 0.0391396880149841 0.000854375015478581
0.0104915630072355 0.0392000004649162 0.000854999991133809
0.0104915630072355 0.0392596907913685 0.000853437464684248
0.0104899993166327 0.0393190607428551 0.000845625007059425
0.0104893753305078 0.039377186447382 0.000836250022985041
0.0104909371584654 0.0394356213510036 0.000830625009257346
0.0104912500828505 0.0394971892237663 0.000828750024084002
0.0104915630072355 0.0395581237971783 0.000828124990221113
0.010491875000298 0.0396190658211708 0.000831562501844019
0.0104912500828505 0.0396803133189678 0.000838749983813614
0.0104903122410178 0.03974249958992 0.000847500050440431
0.0141859380528331 0.0356178134679794 0.00345187494531274
0.0141896875575185 0.0355653129518032 0.0035003125667572
0.0109078120440245 0.0312221869826317 0.00983812566846609
0.0109078120440245 0.0312828123569489 0.00982625037431717
0.0109087498858571 0.0313421860337257 0.00980781298130751
0.010907500050962 0.0314021855592728 0.00978781189769506
0.0109056252986193 0.0314599983394146 0.00975843705236912
0.0109034376218915 0.0315178111195564 0.00972250010818243
0.0109021877869964 0.0315756238996983 0.00969343725591898
0.0108996881172061 0.0316346883773804 0.00967156235128641
0.010899999178946 0.0316943749785423 0.00964781269431114
0.0108996881172061 0.0317543745040894 0.00962906237691641
0.0108978124335408 0.0318137481808662 0.00960906222462654
0.010895624756813 0.0318724997341633 0.00958281196653843
0.0108931241557002 0.0319324992597103 0.00956468749791384
0.0108937500044703 0.0319937504827976 0.00955749955028296
0.010894687846303 0.0320540629327297 0.0095424996688962
0.0108953127637506 0.0321137495338917 0.00952406227588654
0.0108965625986457 0.0321725010871887 0.0094999996945262
0.0108975004404783 0.0322303138673306 0.00947406329214573
0.0108981244266033 0.0322900004684925 0.00945656187832355
0.0108950007706881 0.0323499999940395 0.00943749956786633
0.0108934370800853 0.0324087478220463 0.00941343791782856
0.0108937500044703 0.0324696898460388 0.00939937494695187
0.0108959376811981 0.0325303114950657 0.00938531197607517
0.0108943749219179 0.0325878150761127 0.00935343746095896
0.0108925001695752 0.0326468721032143 0.00933437515050173
0.010890937410295 0.0327050015330315 0.00931000057607889
0.0108893746510148 0.0327596887946129 0.00925750005990267
0.0108856251463294 0.0328081250190735 0.00916749984025955
0.0108846873044968 0.0328606255352497 0.00910312496125698
0.0108834374696016 0.0329171866178513 0.00906406249850988
0.0108803128823638 0.032973125576973 0.0090296883136034
0.0108784371986985 0.0330306254327297 0.00899718794971704
0.0108774993568659 0.0330881215631962 0.00895343814045191
0.0108756246045232 0.033143125474453 0.008907500654459
0.010873437859118 0.0331990607082844 0.00886250007897615
0.0108725000172853 0.0332537516951561 0.00881343707442284
0.0108703123405576 0.0333056263625622 0.0087518747895956
0.0108690625056624 0.033357497304678 0.0086881248280406
0.0108671877533197 0.0334100015461445 0.00862250011414289
0.0108646880835295 0.0334615632891655 0.00855875015258789
0.0108625004068017 0.0335118733346462 0.00848562549799681
0.0108615625649691 0.0335606224834919 0.00840468797832727
0.0108584379777312 0.033610001206398 0.00832562521100044
0.0108546875417233 0.0336609371006489 0.00825312547385693
0.0108503121882677 0.0337140634655952 0.00819593761116266
0.0108487503603101 0.0337659381330013 0.00813812576234341
0.0108474995940924 0.0338193736970425 0.00808281265199184
0.0108456248417497 0.0338725000619888 0.00802843738347292
0.0108434371650219 0.0339256264269352 0.00797406211495399
0.0108418753370643 0.0339803136885166 0.00792406313121319
0.0108403125777841 0.0340356267988682 0.00788281206041574
0.0108378119766712 0.0340921841561794 0.00784531235694885
0.0108359372243285 0.0341465622186661 0.00780718773603439
0.0108359372243285 0.0342040620744228 0.00777468737214804
0.0108325006440282 0.0342599973082542 0.00773343769833446
0.0108300000429153 0.0343146845698357 0.00768656237050891
0.0108281252905726 0.034366562962532 0.00762218749150634
0.0108243748545647 0.0344184376299381 0.00756437471136451
0.0108231250196695 0.0344718731939793 0.0075165624730289
0.0108221871778369 0.0345268733799458 0.00747468741610646
0.0108206253498793 0.0345812477171421 0.00742687517777085
0.0108181247487664 0.0346334390342236 0.00736687518656254
0.0108156250789762 0.0346859358251095 0.00730531243607402
0.010814999230206 0.0347387492656708 0.00724812503904104
0.0108146881684661 0.0347921885550022 0.00719656236469746
0.0108124995604157 0.0348440632224083 0.00714937504380941
0.0108081242069602 0.0348971858620644 0.00709406239911914
0.0108056245371699 0.0349499993026257 0.00703875022009015
0.0108046876266599 0.035001877695322 0.0069778123870492
0.0108024999499321 0.0350515618920326 0.00690124975517392
0.0108003122732043 0.0350971855223179 0.00680906232446432
0.010797499679029 0.0351400002837181 0.00670062471181154
0.0141918752342463 0.0355124995112419 0.00354437483474612
0.014193749986589 0.0354603119194508 0.00359124992974102
0.0141949998214841 0.0354103110730648 0.00364812486805022
0.0141975004225969 0.035359688103199 0.00371593772433698
0.0142009370028973 0.0353100001811981 0.00377937499433756
0.0142056243494153 0.0352599993348122 0.00384843745268881
0.0106750000268221 0.03536781296134 0.0033825000282377
0.0106709375977516 0.0354159399867058 0.00331343756988645
0.010669375769794 0.0354674980044365 0.00325718754902482
0.0106678120791912 0.0355196893215179 0.00320999999530613
0.0106646874919534 0.0355721898376942 0.00316062499769032
0.0106625007465482 0.0356253124773502 0.00311437505297363
0.0106606250628829 0.0356796868145466 0.00307718757539988
0.0106590623036027 0.0357337482273579 0.00304281269200146
0.0106590623036027 0.0357881225645542 0.0030112499371171
0.0106578124687076 0.0358446873724461 0.0029881251975894
0.0106556257233024 0.0359006226062775 0.00296031264588237
0.0106556257233024 0.0359578132629395 0.00293843750841916
0.0106581244617701 0.0360150001943111 0.00291406246833503
0.0106581244617701 0.0360700003802776 0.0028843751642853
0.0106575004756451 0.0361253134906292 0.00285593746230006
