# .PCD v0.7 - Point Cloud Data file format
VERSION 0.7
FIELDS x y z
SIZE 4 4 4
TYPE F F F
COUNT 1 1 1
WIDTH 1613
HEIGHT 1
VIEWPOINT 0 0 0 1 0 0 0
POINTS 1613
DATA ascii
0.0086084 0.0387822 0.0002284
0.0086088 0.0384828 0.0002341
0.0086088 0.0388428 0.0002306
0.0086088 0.03927 0.0002703
0.0086097 0.0387222 0.0002344
0.0086097 0.0389047 0.0002381
0.0086097 0.0390872 0.0002522
0.00861 0.0390269 0.0002463
0.00861 0.0394556 0.00029
0.0086103 0.0384244 0.0002431
0.0086103 0.0389662 0.0002441
0.0086103 0.0393956 0.0002872
0.0086106 0.0343925 0.0062781
0.0086106 0.0346794 0.0061537
0.0086109 0.0393322 0.0002806
0.0086112 0.0344509 0.0062572
0.0086116 0.0395169 0.0002962
0.0086116 0.0396406 0.0003169
0.0086119 0.0383666 0.0002541
0.0086122 0.0395791 0.0003066
0.0086125 0.0348444 0.0060309
0.0086125 0.0383078 0.0002587
0.0086128 0.034335 0.0063097
0.0086131 0.0381316 0.0002731
0.0086131 0.0382487 0.00026
0.0086138 0.0381884 0.0002594
0.0086144 0.0345081 0.0062356
0.008615 0.0379041 0.0003378
0.0086153 0.0342781 0.0063372
0.0086153 0.0378466 0.0003531
0.0086156 0.0346259 0.0061906
0.0086156 0.038075 0.0002972
0.0086159 0.0341631 0.0063884
0.0086166 0.0342219 0.006365
0.0086166 0.0379616 0.0003266
0.0086169 0.0376747 0.0003963
0.0086169 0.0377897 0.0003694
0.0086169 0.0380184 0.0003141
0.0086172 0.0345675 0.0062112
0.0086172 0.0376178 0.0004147
0.0086172 0.0377322 0.0003813
0.0086175 0.0341097 0.0064291
0.0086178 0.0375609 0.0004316
0.0086187 0.037505 0.0004544
0.0086197 0.0373909 0.0004944
0.0086197 0.0374475 0.0004731
0.00862 0.034055 0.0064762
0.00862 0.0373353 0.0005197
0.0086206 0.0372803 0.0005472
0.0086219 0.037225 0.00057
0.0086222 0.0340003 0.0065231
0.0086231 0.0339456 0.0065666
0.0086231 0.03717 0.0005988
0.0086241 0.036895 0.0007416
0.0086247 0.0369503 0.0007103
0.0086247 0.0371153 0.0006278
0.0086253 0.0370053 0.0006812
0.0086253 0.03706 0.0006503
0.0086263 0.0338928 0.0066184
0.0086266 0.0368416 0.0007772
0.0086291 0.0338406 0.0066784
0.0086294 0.0367872 0.0008078
0.0086297 0.0366781 0.0008753
0.0086297 0.0367328 0.0008394
0.0086303 0.0337881 0.0067384
0.0086303 0.0366256 0.0009141
0.0086322 0.0365728 0.0009516
0.0086337 0.0365206 0.0009919
0.0086369 0.0364675 0.0010325
0.0086378 0.0363112 0.0011772
0.0086378 0.0364147 0.0010722
0.0086391 0.0362603 0.0012319
0.0086391 0.0363625 0.00112
0.0086403 0.0362103 0.0012906
0.0086425 0.0361613 0.0013519
0.0086441 0.03571 0.0042881
0.008645 0.0361144 0.0014212
0.0086488 0.0360675 0.0014934
0.0086491 0.0356563 0.0043309
0.0086513 0.0356003 0.0043697
0.0086516 0.035545 0.0044012
0.0086525 0.0354888 0.0044313
0.0086538 0.0327531 0.0080159
0.0086544 0.0354375 0.0044828
0.008655 0.0326941 0.0080431
0.0086559 0.0353866 0.0045475
0.0086569 0.0326356 0.0080703
0.0086575 0.0360206 0.0015719
0.0086581 0.0353391 0.0046219
0.0086594 0.0325806 0.0081134
0.0086603 0.0325247 0.0081456
0.0086625 0.0324659 0.0081666
0.0086637 0.0324056 0.0081844
0.0086653 0.0319997 0.0083766
0.0086656 0.0319403 0.0084012
0.0086659 0.0318828 0.0084319
0.0086659 0.0320578 0.0083522
0.0086669 0.0322894 0.0082422
0.0086672 0.0322306 0.0082631
0.0086672 0.0323475 0.0082131
0.0086675 0.0318253 0.0084606
0.0086678 0.0321731 0.0082897
0.0086691 0.0317681 0.00849
0.0086697 0.0317084 0.0085109
0.00867 0.0321153 0.0083184
0.0086703 0.0316503 0.0085391
0.0086712 0.0314797 0.0086313
0.0086722 0.0315356 0.0085975
0.0086725 0.0315925 0.0085691
0.0086728 0.031425 0.0086784
0.0086931 0.0391488 0.0002659
0.0086931 0.0392106 0.0002753
0.0086944 0.0392725 0.0002822
0.0086947 0.0384859 0.0002503
0.0086947 0.0385453 0.0002475
0.0086947 0.0386056 0.0002488
0.008695 0.0348034 0.0061528
0.008695 0.0386656 0.0002522
0.008695 0.0390884 0.0002603
0.008695 0.0393959 0.0002909
0.008695 0.0394572 0.0002987
0.0086953 0.0387259 0.0002522
0.0086953 0.0387856 0.0002438
0.0086953 0.0393334 0.0002853
0.0086956 0.0384281 0.0002637
0.0086956 0.0390284 0.0002587
0.0086956 0.0395181 0.0003053
0.0086956 0.0396444 0.0003347
0.0086959 0.0389075 0.0002522
0.0086963 0.0381334 0.0002825
0.0086963 0.0388459 0.0002453
0.0086966 0.0389681 0.0002572
0.0086969 0.0395806 0.0003178
0.0086975 0.0347487 0.0061916
0.0086975 0.03837 0.0002738
0.0086981 0.0381909 0.00027
0.0086981 0.03831 0.0002741
0.0086984 0.0380769 0.0003072
0.0086987 0.0344597 0.0063047
0.0086987 0.0346903 0.0062156
0.0086991 0.0382506 0.0002719
0.0087 0.0344009 0.0063244
0.0087 0.0380191 0.0003203
0.0087003 0.0379053 0.0003481
0.0087003 0.0379625 0.0003328
0.0087006 0.0345181 0.0062937
0.0087006 0.037565 0.0004519
0.0087006 0.0376216 0.0004325
0.0087006 0.0378484 0.0003688
0.0087009 0.0376775 0.000415
0.0087013 0.0375088 0.0004722
0.0087022 0.0343447 0.0063603
0.0087022 0.037735 0.0004025
0.0087022 0.0377922 0.0003884
0.0087025 0.0346347 0.0062462
0.0087028 0.0345772 0.0062722
0.0087031 0.0374509 0.0004931
0.0087044 0.0342888 0.0063938
0.008705 0.0373956 0.0005178
0.0087053 0.0342316 0.0064197
0.0087053 0.0373394 0.00054
0.0087056 0.0341719 0.0064419
0.0087066 0.0372844 0.0005688
0.0087078 0.0341184 0.0064872
0.0087078 0.0372294 0.0005947
0.0087097 0.0368981 0.0007578
0.0087097 0.0370097 0.0007041
0.0087097 0.0371734 0.0006194
0.00871 0.0369547 0.0007331
0.00871 0.0370634 0.0006709
0.0087103 0.0340659 0.0065437
0.0087106 0.0368431 0.0007878
0.0087113 0.0371194 0.0006472
0.0087125 0.0340128 0.0065991
0.0087125 0.0367897 0.0008219
0.0087128 0.036735 0.0008541
0.0087131 0.0366806 0.0008891
0.008715 0.0366291 0.0009303
0.0087175 0.0365769 0.0009725
0.0087191 0.0365238 0.0010113
0.0087206 0.0364688 0.0010438
0.0087209 0.0363116 0.0011797
0.0087222 0.0364156 0.0010806
0.0087225 0.0363631 0.0011228
0.0087228 0.0362622 0.0012409
0.0087247 0.0362128 0.0013028
0.0087266 0.0357559 0.0041969
0.0087272 0.0361644 0.0013684
0.0087303 0.0361175 0.0014359
0.0087306 0.0357013 0.0042384
0.0087331 0.0356475 0.00428
0.0087334 0.0355928 0.004325
0.0087341 0.0355384 0.0043616
0.0087347 0.03607 0.0015069
0.0087369 0.0354813 0.0043903
0.0087384 0.03543 0.0044437
0.0087391 0.0329362 0.0079863
0.0087412 0.0360241 0.0015903
0.0087419 0.0353797 0.0045066
0.0087425 0.0328794 0.0080222
0.0087463 0.0353312 0.0045813
0.0087466 0.0328216 0.0080553
0.0087487 0.0327631 0.0080822
0.0087497 0.0327034 0.0081031
0.0087522 0.0326456 0.0081297
0.008755 0.0319456 0.0084341
0.008755 0.0320053 0.0084153
0.008755 0.0325341 0.0082034
0.008755 0.03259 0.0081713
0.0087553 0.0318875 0.0084603
0.0087556 0.03183 0.0084919
0.0087556 0.0320644 0.0083941
0.0087559 0.0324147 0.0082409
0.0087563 0.0317731 0.0085262
0.0087563 0.032475 0.0082247
0.0087566 0.0322975 0.0082934
0.0087575 0.0322394 0.0083181
0.0087581 0.0317147 0.0085562
0.0087581 0.0321819 0.0083444
0.0087584 0.0323553 0.0082644
0.0087591 0.0321225 0.0083663
0.00876 0.0316569 0.0085863
0.0087616 0.0315981 0.0086078
0.0087622 0.0315416 0.0086419
0.0087625 0.0314853 0.0086803
0.0087647 0.0314303 0.0087278
0.0087797 0.0392163 0.0003059
0.00878 0.0385503 0.0002753
0.00878 0.0391547 0.0002962
0.00878 0.0393991 0.0003144
0.00878 0.0394597 0.0003197
0.0087803 0.0384916 0.0002788
0.0087803 0.0392772 0.0003091
0.0087803 0.0393375 0.0003097
0.0087806 0.0386116 0.0002797
0.0087806 0.0395203 0.0003231
0.0087816 0.0390941 0.0002887
0.0087819 0.0386722 0.0002853
0.0087819 0.0387334 0.0002903
0.0087819 0.0389119 0.0002816
0.0087819 0.0390334 0.0002866
0.0087819 0.0395828 0.0003366
0.0087819 0.0396469 0.0003562
0.0087822 0.0384334 0.0002887
0.0087822 0.0387925 0.0002831
0.0087822 0.0389722 0.0002841
0.0087825 0.0388516 0.0002781
0.0087831 0.0381372 0.0003122
0.0087841 0.0381962 0.0003013
0.0087841 0.0383737 0.0002912
0.0087844 0.0383128 0.0002894
0.0087847 0.03808 0.0003322
0.0087847 0.0382544 0.0002928
0.0087853 0.0380222 0.000345
0.0087856 0.037965 0.0003575
0.0087866 0.0348119 0.0062056
0.0087869 0.0379078 0.0003722
0.0087875 0.0375678 0.0004744
0.0087875 0.0376234 0.0004522
0.0087875 0.0376787 0.0004331
0.0087875 0.037795 0.0004091
0.0087875 0.0378519 0.0003944
0.0087878 0.0375109 0.0004919
0.0087878 0.0377375 0.0004225
0.0087897 0.0345294 0.0063566
0.0087897 0.0347003 0.0062766
0.0087897 0.0374531 0.0005106
0.00879 0.03447 0.0063684
0.00879 0.0347591 0.006255
0.0087903 0.0343528 0.0064109
0.0087903 0.0344103 0.0063831
0.0087903 0.0345869 0.0063278
0.0087906 0.0373397 0.0005472
0.0087909 0.0372859 0.0005788
0.0087913 0.0346434 0.0062991
0.0087913 0.0373963 0.0005288
0.0087925 0.0342962 0.0064416
0.0087925 0.0372322 0.0006097
0.0087934 0.0370144 0.0007278
0.0087934 0.0370678 0.0006966
0.0087944 0.0371775 0.0006409
0.008795 0.0369594 0.0007544
0.008795 0.0371241 0.0006706
0.0087953 0.0342403 0.0064775
0.0087953 0.0369022 0.0007803
0.0087956 0.0368462 0.0008072
0.0087972 0.0367925 0.0008381
0.0087975 0.0341841 0.0065166
0.0087978 0.0367381 0.0008709
0.0087981 0.0366834 0.0009041
0.0087997 0.0341334 0.0065784
0.0088 0.0366309 0.0009428
0.0088019 0.0365784 0.0009856
0.0088031 0.0365253 0.0010266
0.008805 0.0364722 0.0010644
0.0088059 0.036315 0.0012
0.0088069 0.0364197 0.0011056
0.0088072 0.0362653 0.0012578
0.0088072 0.0363672 0.0011469
0.0088084 0.0362153 0.0013134
0.0088091 0.0357969 0.0040881
0.0088109 0.0361659 0.0013766
0.008815 0.0357472 0.0041487
0.008815 0.0361194 0.0014481
0.0088191 0.0356937 0.0041959
0.0088197 0.0355844 0.0042741
0.00882 0.03553 0.0043087
0.0088203 0.0360731 0.0015272
0.0088213 0.0356397 0.0042375
0.0088222 0.0354734 0.0043422
0.0088228 0.0354228 0.0044016
0.0088263 0.0353731 0.0044688
0.0088319 0.0353253 0.0045469
0.0088322 0.0331162 0.0079522
0.0088328 0.0330591 0.0079859
0.0088341 0.0330041 0.0080291
0.0088347 0.0329484 0.0080678
0.008835 0.0328897 0.0080931
0.0088375 0.0328306 0.0081156
0.0088381 0.0327734 0.0081462
0.00884 0.0327144 0.0081709
0.0088422 0.0326566 0.0081953
0.0088434 0.0325981 0.0082253
0.0088447 0.0320119 0.0084594
0.0088447 0.0320703 0.0084347
0.0088447 0.0325419 0.0082572
0.0088453 0.0319525 0.0084781
0.0088466 0.0318934 0.0085006
0.0088469 0.0321288 0.0084075
0.0088469 0.0324825 0.0082781
0.0088472 0.0318356 0.0085313
0.0088472 0.0323047 0.0083375
0.0088472 0.0324225 0.0082922
0.0088475 0.0317791 0.0085641
0.0088481 0.0321891 0.0083894
0.0088481 0.0322463 0.0083647
0.0088488 0.0316028 0.0086359
0.0088488 0.0323631 0.0083122
0.0088491 0.0317203 0.0085916
0.0088497 0.0316622 0.0086178
0.00885 0.0315456 0.0086744
0.0088525 0.03149 0.0087194
0.0088566 0.0314359 0.0087709
0.0088578 0.0349953 0.0054725
0.008865 0.0390956 0.0002975
0.008865 0.0391575 0.0003078
0.0088653 0.0389734 0.0002912
0.0088653 0.0390341 0.0002925
0.0088653 0.0392188 0.0003159
0.0088653 0.0394009 0.0003275
0.0088653 0.0394613 0.0003328
0.0088653 0.0396494 0.0003712
0.0088656 0.0385531 0.0002875
0.0088656 0.0389134 0.0002912
0.0088659 0.0384931 0.0002866
0.0088659 0.0395856 0.0003553
0.0088663 0.0387375 0.0003119
0.0088666 0.03928 0.0003194
0.0088666 0.0395228 0.0003394
0.0088669 0.0386147 0.000295
0.0088669 0.0387969 0.000305
0.0088669 0.0388541 0.0002925
0.0088669 0.0393403 0.0003219
0.0088672 0.0386753 0.0003
0.0088675 0.0384334 0.0002934
0.0088678 0.0382556 0.0003006
0.0088678 0.0383137 0.0002953
0.0088681 0.0381978 0.0003116
0.0088681 0.0383734 0.0002944
0.0088697 0.0381391 0.0003253
0.0088719 0.0380825 0.0003472
0.0088722 0.0379678 0.000375
0.0088722 0.0380253 0.0003616
0.0088728 0.0379106 0.00039
0.0088731 0.0348212 0.0062709
0.0088731 0.0377981 0.0004275
0.0088737 0.037855 0.0004147
0.0088741 0.0377416 0.0004453
0.0088747 0.0376834 0.0004619
0.008875 0.0347687 0.0063191
0.008875 0.0375169 0.0005294
0.008875 0.0375741 0.0005122
0.008875 0.0376291 0.0004881
0.0088753 0.0374594 0.0005456
0.0088756 0.0347113 0.0063441
0.0088759 0.0374025 0.0005619
0.0088772 0.0373469 0.0005853
0.0088775 0.0372919 0.0006137
0.0088778 0.0345969 0.0063916
0.0088778 0.0346547 0.0063659
0.0088778 0.0372359 0.0006313
0.0088781 0.0345397 0.0064216
0.0088784 0.0371809 0.0006591
0.0088791 0.0343638 0.0064859
0.0088797 0.0370713 0.0007156
0.0088797 0.0371272 0.0006891
0.00888 0.0370175 0.0007453
0.0088809 0.0344803 0.0064384
0.0088813 0.0344209 0.0064553
0.0088816 0.0343084 0.0065181
0.0088819 0.0369622 0.0007728
0.0088822 0.0368516 0.0008363
0.0088822 0.0369063 0.0008069
0.0088828 0.0367975 0.0008687
0.0088841 0.0367438 0.0009028
0.0088847 0.0366897 0.0009372
0.0088856 0.0366372 0.0009756
0.0088862 0.0365838 0.0010119
0.0088881 0.0365284 0.0010434
0.00889 0.0364753 0.0010794
0.0088909 0.0358409 0.0039934
0.0088909 0.0364228 0.0011187
0.0088922 0.0363703 0.0011638
0.0088925 0.0363181 0.0012206
0.0088934 0.0362694 0.0012809
0.0088953 0.0362194 0.0013359
0.0088972 0.0357897 0.0040491
0.0088981 0.0361684 0.001395
0.0089012 0.0361212 0.0014659
0.0089016 0.0357372 0.0040922
0.0089038 0.0355744 0.0042194
0.0089044 0.0355216 0.0042631
0.008905 0.0356831 0.0041341
0.0089059 0.0356297 0.0041794
0.0089066 0.0354669 0.0043063
0.0089069 0.0360766 0.0015509
0.0089072 0.0333978 0.0077725
0.0089075 0.0354172 0.0043684
0.0089109 0.0333437 0.0078194
0.0089113 0.0353678 0.0044394
0.0089156 0.0353203 0.0045184
0.0089169 0.0332916 0.0078759
0.00892 0.0332372 0.007925
0.0089216 0.0331816 0.0079653
0.0089241 0.0331244 0.0080006
0.008925 0.0330675 0.0080394
0.0089256 0.0328969 0.008135
0.0089263 0.0329553 0.0081103
0.0089263 0.0330116 0.0080775
0.0089278 0.03278 0.0081903
0.0089278 0.0328378 0.0081556
0.0089297 0.0327212 0.0082172
0.0089309 0.0321369 0.0084563
0.0089312 0.0320772 0.0084772
0.0089312 0.0321969 0.0084397
0.0089316 0.0322544 0.0084175
0.0089316 0.0326644 0.0082444
0.0089325 0.0326059 0.0082744
0.0089328 0.0320181 0.0085
0.0089331 0.0323125 0.0083919
0.0089334 0.0325494 0.0083062
0.0089344 0.03196 0.0085247
0.008935 0.0323716 0.0083678
0.008935 0.03249 0.0083266
0.0089353 0.0324303 0.0083428
0.0089356 0.0319016 0.0085497
0.0089369 0.0318428 0.0085769
0.0089375 0.031785 0.0086034
0.0089378 0.0350378 0.0053669
0.0089381 0.0316081 0.0086672
0.0089381 0.0317256 0.0086228
0.0089384 0.0315506 0.0087091
0.0089391 0.0316672 0.0086459
0.0089412 0.0314959 0.0087587
0.0089425 0.0349956 0.0054741
0.0089488 0.0391003 0.0003237
0.0089497 0.0391625 0.0003347
0.00895 0.0389191 0.0003147
0.00895 0.0389794 0.0003153
0.00895 0.0390394 0.0003172
0.00895 0.0392238 0.0003391
0.0089503 0.0388594 0.0003162
0.0089506 0.0392847 0.0003419
0.0089506 0.0394672 0.0003606
0.0089506 0.0396528 0.0003922
0.0089509 0.0388012 0.000325
0.0089509 0.0394069 0.0003544
0.0089519 0.0387406 0.0003306
0.0089519 0.0393453 0.0003478
0.0089519 0.03959 0.00038
0.0089525 0.0386175 0.0003172
0.0089525 0.0386781 0.0003203
0.0089525 0.0395281 0.0003678
0.0089528 0.0382025 0.0003397
0.0089528 0.0382603 0.0003306
0.0089528 0.0385572 0.0003122
0.0089531 0.0383191 0.0003247
0.0089544 0.0383775 0.0003187
0.0089544 0.0384972 0.00031
0.0089547 0.0384372 0.0003162
0.008955 0.0381444 0.0003516
0.0089569 0.0380872 0.0003709
0.0089575 0.0378022 0.0004531
0.0089575 0.0379153 0.0004172
0.0089575 0.0379725 0.0004031
0.0089575 0.03803 0.0003859
0.0089578 0.0378594 0.00044
0.0089581 0.037745 0.0004678
0.00896 0.0376878 0.0004853
0.0089606 0.0348316 0.0063347
0.0089613 0.0347784 0.00638
0.0089619 0.0374631 0.0005659
0.0089619 0.0376328 0.0005103
0.0089622 0.0374075 0.000585
0.0089622 0.0375203 0.0005494
0.0089622 0.0375775 0.0005316
0.0089634 0.0347238 0.0064172
0.0089644 0.0373528 0.0006144
0.0089647 0.0371869 0.0006878
0.0089647 0.0372422 0.0006619
0.0089647 0.0372975 0.0006431
0.0089653 0.0371322 0.0007172
0.0089656 0.0370219 0.00077
0.0089656 0.0370772 0.0007441
0.0089659 0.0345522 0.0065003
0.0089666 0.0346688 0.0064519
0.0089669 0.0346113 0.0064816
0.0089672 0.0368003 0.0008897
0.0089675 0.0368553 0.0008591
0.0089675 0.0369109 0.0008319
0.0089675 0.0369659 0.0007962
0.0089678 0.0344928 0.0065178
0.0089681 0.0367462 0.0009203
0.00897 0.0344353 0.0065447
0.0089703 0.0343803 0.0065881
0.0089703 0.0366934 0.0009572
0.0089731 0.0358862 0.0038997
0.0089734 0.0366419 0.0010012
0.0089744 0.0365878 0.0010356
0.0089766 0.0365325 0.0010672
0.0089772 0.0364272 0.0011425
0.0089772 0.03648 0.0011047
0.0089781 0.0358347 0.0039556
0.0089781 0.0363744 0.0011878
0.00898 0.0363213 0.0012428
0.0089819 0.0357806 0.0039978
0.0089822 0.0362722 0.0013041
0.0089847 0.0362225 0.0013616
0.0089853 0.0357275 0.0040388
0.0089862 0.035515 0.0042278
0.0089869 0.0355675 0.0041794
0.0089875 0.0354622 0.0042756
0.0089881 0.0356216 0.0041341
0.0089881 0.0356734 0.0040822
0.0089884 0.0361731 0.0014222
0.0089891 0.0354122 0.0043366
0.0089897 0.0336813 0.0076006
0.0089903 0.0361272 0.0014953
0.0089934 0.0353634 0.0044109
0.0089937 0.0360831 0.0015869
0.0089947 0.0336309 0.0076669
0.0089991 0.0353178 0.0045003
0.0089994 0.0335781 0.0077284
0.009005 0.0335234 0.0077766
0.0090075 0.0334681 0.0078203
0.0090097 0.0334112 0.0078531
0.0090128 0.0329031 0.0081734
0.0090128 0.0330722 0.0080688
0.0090131 0.0330163 0.0081066
0.0090131 0.0333559 0.0078919
0.0090134 0.0329612 0.0081428
0.0090138 0.032845 0.0081997
0.0090138 0.0331287 0.0080294
0.0090147 0.0351622 0.0050144
0.009015 0.0327875 0.0082378
0.0090159 0.0331859 0.0079978
0.0090159 0.0332997 0.0079269
0.0090162 0.0332425 0.0079619
0.0090169 0.0351225 0.0051444
0.0090172 0.03273 0.0082703
0.0090184 0.0326725 0.0082953
0.0090187 0.0350825 0.0052678
0.0090197 0.0322022 0.0084772
0.00902 0.03226 0.0084516
0.0090203 0.0321428 0.0084975
0.0090212 0.0326147 0.0083263
0.0090216 0.0320831 0.0085184
0.0090216 0.0323181 0.0084256
0.0090222 0.0320247 0.0085431
0.0090222 0.0323778 0.0084041
0.0090228 0.0319666 0.0085694
0.0090228 0.0350406 0.0053841
0.0090231 0.0325569 0.0083547
0.0090237 0.0324375 0.0083866
0.0090237 0.0324975 0.0083737
0.0090241 0.0319075 0.0085931
0.0090253 0.0318494 0.0086175
0.0090266 0.0317916 0.0086412
0.0090272 0.0317319 0.00866
0.0090281 0.0316728 0.0086859
0.0090291 0.0316147 0.0087125
0.0090294 0.035 0.0054972
0.00903 0.0315581 0.0087563
0.0090334 0.0315044 0.0088081
0.0090347 0.0389212 0.0003284
0.0090347 0.0392266 0.000355
0.009035 0.039105 0.0003444
0.009035 0.0391669 0.0003537
0.009035 0.0392878 0.0003584
0.0090353 0.0388606 0.0003253
0.0090353 0.0389825 0.0003328
0.0090359 0.0396575 0.0004156
0.0090363 0.0390431 0.0003378
0.0090369 0.0388006 0.0003234
0.0090372 0.03868 0.0003287
0.0090372 0.0387394 0.0003262
0.0090372 0.03935 0.0003684
0.0090372 0.0395953 0.0004056
0.0090375 0.0386203 0.0003297
0.0090378 0.0394728 0.0003897
0.0090381 0.0382075 0.0003656
0.0090384 0.0394122 0.00038
0.0090384 0.0395341 0.0003966
0.0090391 0.0382653 0.0003553
0.0090394 0.0381484 0.0003741
0.0090394 0.0383231 0.0003462
0.0090394 0.0385603 0.0003303
0.00904 0.0383809 0.0003372
0.0090403 0.0384406 0.0003356
0.0090406 0.0380906 0.0003925
0.0090413 0.0385006 0.0003334
0.0090419 0.0380347 0.0004103
0.0090425 0.0378053 0.0004734
0.0090425 0.0378628 0.0004588
0.0090425 0.0379197 0.0004384
0.0090425 0.0379775 0.0004288
0.0090431 0.0377484 0.0004878
0.0090453 0.0376928 0.0005084
0.0090462 0.0374128 0.0006144
0.0090462 0.0374681 0.0005937
0.0090472 0.0376375 0.0005337
0.0090475 0.0375247 0.0005719
0.0090475 0.0375819 0.0005534
0.0090494 0.0373587 0.0006456
0.0090497 0.0348441 0.0064078
0.0090503 0.0371909 0.0007134
0.0090503 0.0372472 0.0006894
0.0090503 0.0373028 0.0006697
0.0090516 0.0368053 0.0009159
0.0090519 0.0347897 0.0064447
0.0090522 0.0371359 0.0007409
0.0090525 0.0368584 0.0008794
0.0090528 0.0367522 0.0009509
0.0090528 0.0369134 0.0008472
0.0090528 0.0370262 0.0007962
0.0090534 0.0347334 0.0064756
0.0090534 0.0370819 0.0007706
0.0090541 0.03697 0.0008169
0.009055 0.0345628 0.0065653
0.009055 0.0346781 0.0065125
0.0090553 0.0346219 0.0065475
0.0090553 0.0366997 0.0009897
0.0090559 0.0359309 0.0038025
0.0090562 0.0345056 0.0065925
0.0090578 0.0366469 0.0010309
0.0090588 0.0365919 0.0010597
0.0090594 0.0344506 0.006635
0.0090609 0.0343981 0.0066925
0.0090619 0.0358797 0.0038637
0.0090619 0.0365363 0.00109
0.0090625 0.0364306 0.0011647
0.0090625 0.0364841 0.0011291
0.0090641 0.0358269 0.0039106
0.0090647 0.0363778 0.00121
0.0090653 0.0357725 0.0039541
0.0090672 0.0357194 0.0039978
0.0090672 0.0363253 0.0012625
0.0090684 0.035665 0.0040353
0.0090694 0.0362753 0.0013247
0.0090697 0.0356125 0.0040834
0.00907 0.0355075 0.004185
0.0090703 0.0355597 0.0041328
0.0090709 0.0362259 0.001385
0.0090712 0.0354553 0.0042384
0.009075 0.0354059 0.0043066
0.0090753 0.0361778 0.0014516
0.0090791 0.0361328 0.0015303
0.0090794 0.0337994 0.0075591
0.0090816 0.0360903 0.00163
0.0090822 0.0337463 0.0076163
0.0090884 0.0336931 0.007675
0.0090922 0.0336403 0.0077219
0.0090956 0.0335853 0.0077672
0.0090997 0.035165 0.0050309
0.0091016 0.0335284 0.0078044
0.0091022 0.0328525 0.0082478
0.0091022 0.0330222 0.0081434
0.0091025 0.03291 0.0082172
0.0091025 0.0330781 0.0081034
0.0091025 0.0351269 0.0051653
0.0091031 0.0327953 0.0082825
0.0091038 0.0329678 0.0081828
0.0091041 0.0331359 0.0080719
0.0091047 0.0350869 0.0052894
0.009105 0.0327387 0.0083212
0.009105 0.0334722 0.0078462
0.0091053 0.03268 0.008345
0.0091053 0.0332478 0.0079947
0.0091059 0.0331931 0.0080397
0.0091059 0.0334159 0.0078831
0.0091062 0.0326216 0.0083687
0.0091062 0.0333047 0.0079594
0.0091062 0.0333613 0.0079281
0.0091066 0.0325625 0.0083875
0.0091069 0.0323844 0.0084444
0.0091069 0.0325038 0.0084091
0.0091075 0.0322656 0.0084909
0.0091078 0.0322078 0.0085156
0.0091078 0.0323244 0.0084663
0.0091078 0.0324444 0.0084259
0.0091081 0.0350456 0.0054087
0.0091094 0.0321494 0.0085369
0.0091103 0.0320303 0.0085787
0.0091103 0.0320897 0.0085575
0.0091109 0.0319709 0.0086006
0.0091119 0.0319113 0.0086197
0.0091131 0.0318531 0.0086438
0.0091141 0.0317956 0.00867
0.0091156 0.0317363 0.0086937
0.0091175 0.0316781 0.0087237
0.0091181 0.0315659 0.0088062
0.0091181 0.0316209 0.008755
0.0091184 0.0392325 0.0003856
0.0091184 0.0392928 0.0003872
0.0091194 0.0389269 0.0003537
0.00912 0.0391722 0.0003794
0.0091203 0.0388653 0.0003459
0.0091203 0.0389875 0.0003597
0.0091203 0.03911 0.0003694
0.0091203 0.0393547 0.0003928
0.0091206 0.0386847 0.0003522
0.0091206 0.0390478 0.0003631
0.0091206 0.0396 0.0004291
0.0091209 0.038625 0.0003537
0.0091209 0.0387434 0.0003472
0.0091209 0.0395381 0.0004178
0.0091219 0.0388047 0.0003438
0.0091219 0.0394772 0.0004106
0.0091219 0.0396625 0.0004381
0.0091225 0.0394169 0.0004034
0.0091228 0.0382144 0.0004
0.0091231 0.0382722 0.0003891
0.0091231 0.0385656 0.0003587
0.0091234 0.038155 0.0004056
0.0091234 0.0383297 0.0003778
0.0091247 0.0380959 0.0004194
0.0091247 0.0383875 0.0003694
0.009125 0.0384472 0.0003684
0.0091253 0.0385072 0.0003678
0.0091259 0.0380397 0.0004375
0.0091272 0.0379822 0.0004563
0.0091275 0.0378672 0.0004809
0.0091275 0.0379238 0.0004634
0.0091278 0.0378106 0.0004994
0.0091294 0.0377547 0.0005178
0.0091316 0.0376991 0.00054
0.0091322 0.0376425 0.0005594
0.0091325 0.0374178 0.0006409
0.0091325 0.0375853 0.0005756
0.0091337 0.0374741 0.0006231
0.0091341 0.0375287 0.0005975
0.0091347 0.0373628 0.0006703
0.0091359 0.0371972 0.0007453
0.0091369 0.0372525 0.0007197
0.0091369 0.0373075 0.0006956
0.0091375 0.0371422 0.0007738
0.0091381 0.0348578 0.0064853
0.0091381 0.0359737 0.0037041
0.0091381 0.0370334 0.0008334
0.0091381 0.0370878 0.0008056
0.0091384 0.0369188 0.0008747
0.0091394 0.0347453 0.0065497
0.0091394 0.0348025 0.0065212
0.0091394 0.0368116 0.0009453
0.0091394 0.0368647 0.0009081
0.0091394 0.0369769 0.0008503
0.00914 0.0367578 0.0009797
0.0091419 0.0367044 0.0010169
0.0091422 0.0346897 0.0065822
0.0091438 0.0359241 0.0037666
0.0091441 0.0366503 0.0010531
0.0091444 0.0346325 0.0066144
0.009145 0.0365953 0.0010816
0.0091456 0.0345744 0.0066375
0.0091466 0.0358706 0.0038141
0.0091466 0.036435 0.0011912
0.0091469 0.0345203 0.0066769
0.0091472 0.0365406 0.0011147
0.0091475 0.0364878 0.0011553
0.0091478 0.0358172 0.0038541
0.0091484 0.0357631 0.0038972
0.0091494 0.0344678 0.0067378
0.0091497 0.0363825 0.0012372
0.00915 0.03571 0.0039434
0.0091506 0.0356559 0.0039809
0.0091525 0.0356031 0.0040284
0.0091528 0.03633 0.0012878
0.0091544 0.0355506 0.0040834
0.009155 0.0362803 0.0013497
0.0091553 0.0354997 0.0041394
0.0091575 0.0354478 0.004195
0.0091575 0.0362319 0.0014128
0.0091616 0.0361831 0.0014825
0.0091647 0.0361381 0.0015628
0.009165 0.0340306 0.0074578
0.0091653 0.0360972 0.0016684
0.00917 0.0339781 0.00751
0.0091741 0.0339222 0.0075522
0.0091769 0.0338653 0.0075891
0.0091816 0.0338097 0.0076275
0.0091872 0.0351678 0.0050556
0.0091875 0.0337553 0.007675
0.0091887 0.0330281 0.0081834
0.0091891 0.03513 0.0051863
0.0091894 0.0330825 0.0081294
0.0091894 0.0335934 0.0078175
0.0091897 0.0332509 0.00801
0.0091897 0.0333078 0.0079744
0.0091897 0.0336503 0.0077844
0.00919 0.0331956 0.008055
0.0091903 0.0328594 0.0082997
0.0091903 0.0329172 0.0082684
0.0091903 0.0331387 0.0080931
0.0091903 0.0333638 0.0079447
0.0091909 0.03509 0.0053094
0.0091912 0.0337038 0.0077422
0.0091916 0.0329753 0.0082353
0.0091919 0.0334197 0.0079044
0.0091919 0.0335341 0.0078388
0.0091925 0.0328019 0.008325
0.0091928 0.0334762 0.0078703
0.0091944 0.0350509 0.00544
0.0091947 0.0327447 0.0083572
0.009195 0.032685 0.0083753
0.0091966 0.0322141 0.0085491
0.0091966 0.0322719 0.0085269
0.0091966 0.0326253 0.0083909
0.0091972 0.0325063 0.0084284
0.0091972 0.0325656 0.0084056
0.0091975 0.0323291 0.0084966
0.0091975 0.0323881 0.0084712
0.0091975 0.0324478 0.0084503
0.0091991 0.032155 0.0085725
0.0092003 0.0320956 0.0085975
0.0092012 0.0320375 0.0086216
0.0092047 0.0319794 0.00865
0.009205 0.0392981 0.0004147
0.0092053 0.0392391 0.0004156
0.0092056 0.0393584 0.0004163
0.0092056 0.0395428 0.0004397
0.0092056 0.0396053 0.000455
0.0092063 0.0319197 0.00867
0.0092063 0.0394809 0.0004322
0.0092069 0.0318041 0.0087247
0.0092069 0.0318606 0.0086937
0.0092069 0.03875 0.0003816
0.0092069 0.03942 0.0004247
0.0092072 0.0386903 0.0003828
0.0092072 0.0388106 0.0003772
0.0092072 0.0391153 0.0003997
0.0092072 0.0391778 0.0004075
0.0092072 0.0396672 0.000465
0.0092075 0.0386306 0.0003837
0.0092075 0.0388709 0.0003769
0.0092075 0.0390531 0.0003897
0.0092078 0.0317453 0.0087547
0.0092084 0.0389325 0.0003809
0.0092088 0.0389928 0.0003844
0.0092091 0.0316313 0.0088234
0.0092094 0.0316878 0.0087869
0.0092094 0.0385725 0.0003913
0.0092097 0.0381622 0.000445
0.0092097 0.0382778 0.0004209
0.0092097 0.0383353 0.0004084
0.00921 0.0382203 0.0004344
0.00921 0.0383934 0.0003997
0.0092103 0.0384534 0.0003984
0.0092106 0.0381031 0.0004575
0.0092113 0.0385144 0.0004006
0.0092122 0.0380453 0.0004719
0.0092128 0.0378172 0.0005334
0.0092128 0.0378734 0.0005128
0.0092128 0.03793 0.000495
0.0092128 0.0379878 0.0004859
0.0092138 0.0377603 0.0005503
0.0092153 0.0377038 0.0005694
0.0092156 0.0376472 0.0005862
0.0092159 0.0374228 0.0006719
0.0092159 0.0375903 0.000605
0.0092175 0.0374797 0.0006556
0.0092175 0.0375347 0.0006306
0.0092181 0.0373675 0.0006988
0.0092212 0.0373125 0.0007244
0.0092219 0.0372575 0.0007503
0.0092222 0.0372028 0.0007759
0.0092228 0.0359666 0.0036631
0.0092237 0.0371478 0.0008025
0.0092244 0.0370928 0.0008341
0.0092247 0.0369253 0.0009131
0.0092247 0.0370384 0.000865
0.009225 0.0368703 0.0009416
0.0092253 0.0367622 0.0010094
0.0092253 0.0368159 0.0009738
0.0092253 0.0369825 0.0008859
0.0092259 0.0348681 0.0065491
0.0092259 0.0367084 0.0010428
0.0092262 0.035915 0.0037162
0.0092278 0.0348144 0.0065897
0.0092281 0.0347578 0.0066222
0.0092281 0.0366547 0.0010747
0.0092288 0.0358619 0.0037613
0.0092303 0.0347022 0.0066512
0.0092303 0.0366003 0.0011056
0.0092316 0.0358081 0.0038034
0.0092325 0.0365466 0.0011416
0.0092328 0.034645 0.0066838
0.0092331 0.0364403 0.0012206
0.0092338 0.0357547 0.0038497
0.0092338 0.0364928 0.0011822
0.009235 0.0356494 0.0039431
0.009235 0.0357025 0.0038981
0.0092353 0.0355969 0.0039934
0.0092356 0.034485 0.0068431
0.0092356 0.0345369 0.0067762
0.0092356 0.0363875 0.0012641
0.0092359 0.0345897 0.0067266
0.0092375 0.0355434 0.0040434
0.0092378 0.0344353 0.0069213
0.0092391 0.0363344 0.0013153
0.00924 0.0354919 0.004095
0.0092406 0.0362853 0.0013775
0.0092416 0.0343894 0.0070069
0.0092422 0.0343419 0.0070953
0.0092422 0.0354391 0.0041503
0.0092425 0.0362372 0.0014394
0.0092444 0.0342944 0.0071847
0.0092453 0.0361881 0.0015094
0.0092472 0.0342456 0.0072638
0.0092484 0.0361434 0.0015934
0.0092491 0.0341959 0.0073303
0.0092519 0.0341447 0.0073944
0.0092566 0.0340937 0.0074653
0.00926 0.0340416 0.0075275
0.0092647 0.0339875 0.0075687
0.0092691 0.0339316 0.0076078
0.0092709 0.0333141 0.0080134
0.0092712 0.0351731 0.0050853
0.0092719 0.0338744 0.0076419
0.0092722 0.0332572 0.0080516
0.0092722 0.0333688 0.007975
0.0092728 0.0351347 0.0052184
0.0092738 0.0332016 0.0080934
0.0092747 0.0334247 0.0079337
0.0092753 0.0330331 0.008215
0.0092753 0.0330884 0.0081659
0.0092753 0.0338175 0.0076762
0.0092759 0.033145 0.0081325
0.0092759 0.0352122 0.0049531
0.0092772 0.0350947 0.005345
0.0092775 0.0335953 0.0078363
0.0092778 0.0329209 0.0082934
0.0092778 0.0334809 0.0078978
0.0092784 0.0328631 0.0083237
0.0092788 0.0329794 0.0082647
0.0092788 0.0335369 0.0078606
0.0092788 0.0336531 0.0078091
0.00928 0.0337612 0.0077147
0.0092809 0.0337084 0.0077753
0.0092819 0.0328056 0.0083488
0.0092837 0.0326897 0.0084072
0.0092841 0.0327491 0.0083847
0.0092856 0.0326306 0.0084278
0.0092872 0.0325722 0.0084497
0.0092875 0.0325131 0.0084747
0.0092878 0.0324544 0.0084944
0.0092897 0.0323953 0.0085175
0.0092903 0.0323369 0.0085438
0.0092909 0.0387575 0.0004175
0.0092909 0.0388191 0.0004166
0.0092916 0.0322778 0.008565
0.0092922 0.0386972 0.0004153
0.0092922 0.0393044 0.0004475
0.0092925 0.0386375 0.0004163
0.0092925 0.0388794 0.0004163
0.0092925 0.03906 0.0004256
0.0092925 0.0392447 0.0004466
0.0092925 0.0393647 0.0004484
0.0092925 0.0396116 0.0004847
0.0092925 0.0396728 0.0004922
0.0092928 0.0389997 0.0004216
0.0092928 0.0391219 0.0004341
0.0092931 0.0322188 0.0085803
0.0092931 0.0385797 0.0004266
0.0092931 0.0389397 0.0004169
0.0092931 0.0394253 0.0004522
0.0092937 0.0391841 0.0004406
0.0092937 0.0394872 0.0004647
0.0092937 0.0395497 0.0004737
0.0092947 0.0384016 0.0004406
0.0092947 0.0384616 0.0004381
0.0092947 0.0385216 0.0004359
0.009295 0.0383425 0.000445
0.0092953 0.0382847 0.0004569
0.0092956 0.0320447 0.008665
0.0092956 0.0321022 0.0086378
0.0092956 0.0381697 0.0004878
0.0092959 0.0321603 0.0086072
0.0092966 0.0382272 0.0004741
0.0092972 0.0381119 0.0005022
0.0092975 0.0318128 0.0087797
0.0092975 0.0318687 0.0087453
0.0092978 0.0319275 0.0087172
0.0092988 0.0317556 0.0088184
0.0092988 0.0319872 0.0086972
0.0092991 0.0380528 0.0005109
0.0092994 0.0317006 0.0088638
0.0092994 0.0379378 0.0005363
0.0092994 0.037995 0.0005219
0.0092997 0.0378816 0.0005528
0.0093 0.037825 0.0005728
0.0093013 0.0374287 0.0007056
0.0093013 0.0377681 0.0005919
0.0093019 0.0375959 0.000635
0.0093019 0.0376538 0.0006209
0.0093022 0.0374853 0.0006872
0.0093022 0.0377116 0.0006097
0.0093025 0.0373731 0.0007281
0.0093025 0.0375406 0.0006609
0.0093034 0.0373178 0.0007534
0.0093038 0.0372631 0.0007828
0.0093053 0.0372091 0.0008097
0.0093062 0.0371544 0.0008372
0.0093081 0.0371 0.0008691
0.00931 0.0359559 0.0036037
0.00931 0.0370463 0.0009034
0.0093103 0.0368775 0.0009778
0.0093103 0.0369328 0.0009525
0.0093116 0.03699 0.0009272
0.0093119 0.0368225 0.0010063
0.0093122 0.0367681 0.0010419
0.0093125 0.0367144 0.0010741
0.0093134 0.0349325 0.0065566
0.0093134 0.0359047 0.0036584
0.0093141 0.0357994 0.00375
0.0093141 0.0358525 0.003705
0.009315 0.0366603 0.0011047
0.0093159 0.03488 0.0066178
0.0093159 0.0357459 0.0037981
0.0093169 0.0366053 0.0011334
0.0093175 0.0365509 0.0011662
0.0093181 0.0364978 0.0012091
0.0093188 0.0348262 0.0066597
0.0093188 0.0355897 0.003955
0.0093194 0.0347697 0.0066934
0.0093194 0.0356412 0.0039006
0.0093194 0.0356944 0.0038509
0.0093197 0.0347141 0.0067213
0.0093197 0.0364469 0.0012563
0.0093206 0.0346566 0.0067509
0.0093206 0.0355369 0.0040037
0.0093219 0.0363947 0.0013056
0.0093231 0.0345 0.0069363
0.0093241 0.0344509 0.0070172
0.0093241 0.0346028 0.0068038
0.0093241 0.0354847 0.0040506
0.0093244 0.0345506 0.0068622
0.0093247 0.0363422 0.0013562
0.0093263 0.0354325 0.0041078
0.0093269 0.0362925 0.0014172
0.0093272 0.0362428 0.0014731
0.0093281 0.0344047 0.0071003
0.0093281 0.0361937 0.0015438
0.0093291 0.0343575 0.0071881
0.0093313 0.03615 0.0016344
0.0093334 0.0343091 0.0072716
0.0093391 0.0342578 0.0073416
0.0093422 0.0342075 0.0074059
0.009345 0.0341563 0.0074697
0.0093494 0.0341028 0.0075272
0.0093522 0.0340484 0.0075725
0.0093531 0.0333694 0.0079822
0.0093534 0.0333166 0.0080294
0.0093534 0.0334253 0.0079438
0.0093559 0.0332603 0.0080678
0.0093559 0.0339944 0.0076109
0.0093563 0.0334834 0.0079159
0.0093566 0.0351425 0.0052609
0.0093566 0.0351803 0.005125
0.0093591 0.0332053 0.0081187
0.0093594 0.0335416 0.0078859
0.0093594 0.0339381 0.0076503
0.0093597 0.0335997 0.0078581
0.0093603 0.0336563 0.0078241
0.0093606 0.0330959 0.0082175
0.0093606 0.0331512 0.0081737
0.0093613 0.0337109 0.0077897
0.0093616 0.03304 0.0082578
0.0093616 0.0338806 0.0076813
0.0093628 0.0337675 0.0077556
0.0093628 0.0338244 0.0077175
0.0093631 0.03522 0.0049994
0.0093647 0.0329847 0.0083003
0.0093653 0.0329272 0.0083328
0.0093672 0.03287 0.0083644
0.00937 0.0328113 0.0083897
0.0093725 0.0327534 0.0084213
0.0093744 0.0326947 0.0084462
0.0093766 0.0325225 0.0085344
0.0093766 0.0326381 0.0084769
0.0093766 0.0396775 0.0005144
0.0093769 0.0324622 0.0085497
0.0093772 0.0325809 0.0085078
0.0093775 0.0387637 0.0004506
0.0093775 0.0396156 0.0005072
0.0093778 0.0388253 0.0004525
0.0093778 0.0391259 0.0004588
0.0093781 0.0385259 0.0004628
0.0093781 0.038585 0.0004581
0.0093781 0.0386437 0.0004509
0.0093781 0.0387031 0.0004487
0.0093781 0.0390656 0.0004566
0.0093781 0.0391875 0.0004631
0.0093781 0.0392481 0.0004666
0.0093781 0.0393084 0.00047
0.0093781 0.0395547 0.0004997
0.0093784 0.0384659 0.0004675
0.0093784 0.0390056 0.0004531
0.0093784 0.0394925 0.0004913
0.0093788 0.0384062 0.0004697
0.0093794 0.0388856 0.0004522
0.0093794 0.0393697 0.0004744
0.0093794 0.0394303 0.0004781
0.0093797 0.0389456 0.0004487
0.00938 0.0324038 0.0085772
0.00938 0.0383481 0.0004744
0.0093809 0.0381756 0.0005187
0.0093809 0.0382903 0.0004863
0.0093813 0.0323459 0.0086047
0.0093822 0.0382328 0.0005034
0.0093825 0.0381187 0.0005384
0.0093831 0.0380022 0.0005581
0.0093831 0.03806 0.0005475
0.0093834 0.037945 0.0005759
0.0093841 0.0322866 0.0086219
0.0093847 0.0378878 0.0005881
0.0093853 0.0378322 0.0006097
0.0093859 0.0376631 0.0006684
0.0093859 0.0377766 0.0006341
0.0093862 0.0376053 0.0006812
0.0093872 0.0322275 0.0086369
0.0093872 0.0377203 0.0006572
0.0093875 0.0375497 0.0007056
0.0093881 0.0374944 0.0007322
0.0093888 0.0320516 0.0087122
0.0093891 0.0374387 0.0007566
0.0093897 0.0319953 0.0087519
0.0093897 0.0321094 0.0086844
0.0093897 0.0373822 0.0007753
0.00939 0.0321684 0.0086597
0.00939 0.0373256 0.0007953
0.0093903 0.0372697 0.0008184
0.0093922 0.0372134 0.0008381
0.0093925 0.0359997 0.0034991
0.0093925 0.0371584 0.0008659
0.0093944 0.037105 0.0008972
0.0093947 0.0359475 0.0035513
0.0093953 0.03694 0.0009891
0.0093953 0.0370522 0.0009341
0.0093956 0.0368844 0.0010159
0.0093969 0.035895 0.0036022
0.0093969 0.0369969 0.0009638
0.0093972 0.0368297 0.0010453
0.0093975 0.036775 0.0010794
0.0093978 0.0358422 0.0036481
0.0093984 0.0367206 0.0011109
0.0093991 0.03579 0.0036966
0.0094003 0.0357375 0.0037491
0.0094019 0.0366672 0.0011431
0.0094028 0.0349447 0.0066269
0.0094028 0.0365578 0.0012044
0.0094031 0.0365041 0.0012431
0.0094031 0.0366125 0.0011741
0.0094034 0.0356344 0.0038575
0.0094038 0.0356869 0.0038053
0.0094044 0.0355819 0.0039094
0.0094047 0.0364525 0.0012872
0.0094056 0.0355278 0.0039569
0.0094059 0.0364003 0.0013366
0.0094062 0.03489 0.0066725
0.0094081 0.0347247 0.0067881
0.0094081 0.0348347 0.0067144
0.0094081 0.0354756 0.0040025
0.0094084 0.0346697 0.00683
0.0094084 0.0347784 0.0067509
0.0094084 0.0363484 0.0013903
0.0094106 0.0346169 0.0068866
0.0094109 0.0354241 0.0040603
0.0094113 0.0362991 0.0014519
0.0094116 0.0362497 0.0015103
0.0094125 0.034515 0.0070237
0.0094125 0.034565 0.0069491
0.0094137 0.0362009 0.0015816
0.0094153 0.0344666 0.0071072
0.0094175 0.0361575 0.0016731
0.0094203 0.03442 0.0071922
0.0094209 0.0343719 0.0072731
0.009425 0.0343213 0.0073453
0.0094294 0.0342684 0.0074034
0.0094319 0.0342169 0.0074581
0.009435 0.034165 0.0075206
0.0094369 0.0334284 0.0079603
0.0094381 0.0334869 0.0079341
0.0094384 0.0333725 0.0080019
0.0094388 0.0341112 0.0075763
0.0094403 0.0340566 0.00762
0.0094406 0.0333194 0.0080506
0.0094406 0.0335453 0.0079078
0.0094412 0.0336025 0.0078747
0.0094419 0.0340022 0.0076578
0.0094425 0.0336581 0.0078341
0.0094431 0.0332631 0.0080853
0.0094438 0.0351503 0.0053088
0.0094441 0.0337137 0.0078016
0.0094441 0.03383 0.0077488
0.0094444 0.0339466 0.0076997
0.0094447 0.0337731 0.0077834
0.0094447 0.0338878 0.0077241
0.009445 0.0332081 0.0081347
0.009445 0.0351881 0.0051734
0.0094472 0.0331537 0.0081834
0.0094497 0.0330991 0.0082347
0.0094503 0.0352287 0.0050547
0.0094516 0.0330453 0.0082856
0.0094525 0.0329337 0.008375
0.0094525 0.0329903 0.0083319
0.0094537 0.0328791 0.0084209
0.0094559 0.0328222 0.0084606
0.0094569 0.0324775 0.0086456
0.0094584 0.032765 0.0084928
0.0094587 0.0324194 0.0086728
0.0094587 0.0325372 0.0086253
0.0094603 0.0327075 0.0085244
0.0094613 0.0323613 0.0087019
0.0094616 0.0325947 0.0085928
0.0094619 0.0326516 0.0085609
0.0094644 0.0388344 0.0005031
0.0094644 0.0394975 0.0005166
0.0094644 0.0395597 0.0005256
0.0094644 0.0396822 0.0005422
0.0094647 0.0391325 0.0004934
0.0094647 0.0391928 0.0004944
0.0094647 0.0393147 0.0005013
0.0094647 0.039375 0.0005028
0.0094647 0.0396203 0.0005356
0.009465 0.0323016 0.00872
0.009465 0.0387737 0.000505
0.009465 0.0388944 0.0005022
0.009465 0.0394353 0.0005072
0.0094653 0.0385344 0.0005094
0.0094656 0.0392541 0.0004988
0.0094659 0.0390738 0.0004978
0.0094663 0.0322406 0.0087294
0.0094663 0.0384747 0.0005147
0.0094663 0.0389541 0.0004978
0.0094663 0.0390141 0.0004981
0.0094666 0.0385931 0.000505
0.0094666 0.0387128 0.0005034
0.0094669 0.038415 0.0005163
0.0094669 0.0386534 0.0005047
0.0094678 0.0320094 0.008845
0.0094678 0.0383569 0.0005209
0.0094681 0.0320653 0.0088078
0.0094681 0.0321822 0.0087516
0.0094681 0.0381825 0.0005566
0.0094684 0.0321241 0.0087791
0.0094691 0.0382981 0.00053
0.0094694 0.0379519 0.0006134
0.0094694 0.03824 0.0005422
0.0094697 0.0380088 0.0005975
0.0094697 0.0380656 0.0005844
0.0094697 0.0381237 0.0005716
0.0094706 0.0378938 0.0006247
0.0094716 0.0378381 0.0006469
0.0094725 0.0377828 0.0006716
0.0094731 0.0376691 0.0007053
0.0094738 0.0377269 0.0006953
0.0094744 0.0376125 0.0007219
0.0094747 0.0375006 0.0007691
0.009475 0.0374453 0.0007947
0.009475 0.0375572 0.0007456
0.0094756 0.0373897 0.0008166
0.0094766 0.0373341 0.0008366
0.0094775 0.0372775 0.0008575
0.0094778 0.0359384 0.0035022
0.0094778 0.0359903 0.00345
0.0094784 0.035885 0.0035484
0.0094784 0.037165 0.0009025
0.0094788 0.0372203 0.0008772
0.0094797 0.0371106 0.0009306
0.0094803 0.0358309 0.0035906
0.0094803 0.0370575 0.0009653
0.0094812 0.036945 0.0010197
0.0094816 0.0370025 0.0009959
0.0094822 0.0368891 0.0010466
0.0094825 0.0357797 0.0036372
0.0094828 0.0368356 0.0010775
0.0094831 0.0367822 0.0011131
0.0094834 0.0357278 0.0036928
0.009485 0.0367278 0.001145
0.0094869 0.0356772 0.0037497
0.0094878 0.0356247 0.0038009
0.0094891 0.0366744 0.0011809
0.0094897 0.0365134 0.0012909
0.00949 0.0355719 0.0038488
0.00949 0.0365669 0.0012544
0.0094903 0.0364603 0.0013319
0.0094909 0.0366203 0.0012191
0.0094922 0.0355184 0.0039016
0.0094922 0.0364075 0.0013753
0.0094928 0.0349569 0.0067013
0.0094944 0.036355 0.001425
0.0094947 0.0354681 0.0039581
0.0094956 0.0349 0.0067309
0.0094963 0.0363041 0.0014788
0.0094984 0.0348428 0.0067638
0.0094994 0.03468 0.0068938
0.0094997 0.0347344 0.0068447
0.0095 0.0362559 0.0015509
0.0095003 0.0346272 0.00695
0.0095003 0.0347875 0.0068028
0.0095013 0.0345269 0.0070984
0.0095016 0.0345769 0.0070203
0.0095041 0.0362106 0.0016363
0.0095044 0.0344784 0.0071816
0.0095059 0.0361691 0.0017356
0.0095097 0.0344328 0.0072672
0.0095125 0.0343834 0.0073437
0.0095162 0.0343306 0.0074075
0.0095178 0.0342784 0.0074631
0.0095184 0.034225 0.0075088
0.0095219 0.0341716 0.0075603
0.0095253 0.0337178 0.0078325
0.0095253 0.0341159 0.0076053
0.0095256 0.0334913 0.0079613
0.0095259 0.0336625 0.0078653
0.0095269 0.0334331 0.0079884
0.0095272 0.0336069 0.0079012
0.0095272 0.0337756 0.0078034
0.0095272 0.0338338 0.0077775
0.0095275 0.0324922 0.0087366
0.0095275 0.0335497 0.007935
0.0095278 0.0324328 0.0087578
0.0095278 0.0338947 0.0077637
0.0095284 0.0340609 0.0076506
0.0095291 0.0339534 0.0077384
0.0095294 0.0325516 0.0087159
0.0095294 0.0333766 0.0080247
0.0095297 0.0340078 0.0076953
0.00953 0.0323734 0.0087831
0.0095306 0.0326072 0.008675
0.0095309 0.0326631 0.0086384
0.0095316 0.0332153 0.0081794
0.0095319 0.0333231 0.0080731
0.0095325 0.0327197 0.0085988
0.0095325 0.0328325 0.0085231
0.0095325 0.0328878 0.0084756
0.0095325 0.0351975 0.0052278
0.0095328 0.0320212 0.0089219
0.0095328 0.0322534 0.0088128
0.0095328 0.0331622 0.0082338
0.0095331 0.0323144 0.0088025
0.0095331 0.0332684 0.0081216
0.0095338 0.0327766 0.0085622
0.0095341 0.0320781 0.0088903
0.0095344 0.0321375 0.0088638
0.0095344 0.0321953 0.0088341
0.0095356 0.0329425 0.0084284
0.0095363 0.0331078 0.0082891
0.0095369 0.0352388 0.0051137
0.0095381 0.0329994 0.0083834
0.0095384 0.0330544 0.0083412
0.0095478 0.0388997 0.0005272
0.0095478 0.0391375 0.0005163
0.0095478 0.0391975 0.0005163
0.0095481 0.0393197 0.0005272
0.0095481 0.03938 0.0005281
0.0095481 0.0395022 0.0005381
0.0095481 0.0395644 0.0005491
0.0095484 0.03884 0.0005306
0.0095484 0.0389581 0.0005219
0.0095484 0.0390178 0.0005209
0.0095484 0.0390778 0.0005203
0.0095484 0.0392584 0.0005222
0.0095491 0.0394403 0.0005319
0.0095497 0.039625 0.00056
0.00955 0.0396869 0.0005672
0.0095503 0.03878 0.0005397
0.0095506 0.0385422 0.0005516
0.0095509 0.0384825 0.000555
0.0095522 0.03872 0.0005416
0.0095525 0.0384228 0.0005562
0.0095525 0.0386003 0.0005441
0.0095528 0.0386603 0.0005431
0.0095544 0.038365 0.0005619
0.0095547 0.0379606 0.0006619
0.009555 0.0381913 0.0006003
0.009555 0.0382478 0.0005812
0.009555 0.0383066 0.0005706
0.0095553 0.0380187 0.0006481
0.0095556 0.0380747 0.0006297
0.0095566 0.0378472 0.0006947
0.0095566 0.0381325 0.0006134
0.0095569 0.0379028 0.0006747
0.0095572 0.0360322 0.0033441
0.0095575 0.0377906 0.0007131
0.0095588 0.0377347 0.0007344
0.00956 0.0376775 0.0007503
0.0095603 0.0359794 0.00339
0.0095603 0.0374522 0.0008272
0.0095603 0.0375081 0.000805
0.0095606 0.0359266 0.00344
0.0095609 0.0373403 0.0008716
0.0095616 0.0373959 0.0008488
0.0095622 0.0358744 0.0034875
0.0095622 0.037285 0.0008963
0.0095622 0.037565 0.0007888
0.0095622 0.0376206 0.0007688
0.0095634 0.0372281 0.0009172
0.0095647 0.0371728 0.0009425
0.009565 0.0358206 0.0035325
0.0095653 0.0370647 0.0010031
0.0095653 0.0371181 0.0009728
0.0095662 0.0370091 0.0010306
0.0095669 0.0357697 0.0035803
0.0095675 0.0357178 0.0036366
0.0095688 0.0369516 0.0010594
0.0095697 0.0368972 0.0010919
0.00957 0.0368441 0.0011253
0.0095703 0.0356666 0.0036922
0.0095703 0.03679 0.0011575
0.0095709 0.036735 0.001185
0.0095722 0.0356131 0.0037397
0.0095734 0.0366809 0.0012175
0.0095747 0.0355603 0.0037869
0.0095753 0.0365191 0.0013222
0.0095753 0.0365728 0.0012909
0.0095753 0.0366272 0.0012563
0.0095759 0.0350147 0.0066828
0.0095759 0.0364672 0.0013675
0.0095769 0.0355075 0.0038394
0.0095781 0.036415 0.0014169
0.0095794 0.0354559 0.0038941
0.0095806 0.0363628 0.0014697
0.0095809 0.0349631 0.0067469
0.0095828 0.0349069 0.0067762
0.0095837 0.0363125 0.0015247
0.0095841 0.03485 0.00681
0.0095856 0.034795 0.0068522
0.0095869 0.0347419 0.006895
0.0095872 0.0346875 0.00694
0.0095887 0.0362653 0.0016038
0.0095891 0.0346341 0.0069963
0.00959 0.0345359 0.0071528
0.0095903 0.034585 0.0070725
0.0095913 0.0362203 0.0016894
0.0095916 0.0344872 0.0072331
0.0095972 0.0344403 0.0073137
0.0096012 0.03439 0.0073875
0.0096047 0.0343375 0.0074491
0.0096066 0.0342306 0.0075462
0.0096066 0.034285 0.0075028
0.0096075 0.0337238 0.0078656
0.0096078 0.0328984 0.0085475
0.0096081 0.0339584 0.00777
0.0096084 0.0341775 0.0075963
0.0096091 0.0337812 0.0078366
0.0096091 0.0339016 0.0078044
0.0096091 0.0340137 0.0077328
0.0096094 0.0338406 0.0078209
0.0096103 0.0341222 0.0076384
0.0096109 0.0340672 0.007685
0.0096112 0.0336678 0.0078953
0.0096119 0.0329519 0.0084922
0.0096128 0.0334994 0.0080134
0.0096141 0.0334425 0.0080478
0.0096144 0.0336113 0.0079306
0.0096156 0.0335553 0.0079747
0.0096159 0.0330081 0.0084378
0.0096169 0.0333859 0.0080834
0.0096178 0.0330631 0.0083953
0.0096178 0.0331178 0.0083534
0.0096178 0.0331722 0.0082984
0.0096181 0.0352066 0.0052803
0.0096187 0.0332253 0.0082381
0.0096194 0.0333325 0.0081331
0.00962 0.0332781 0.0081828
0.0096231 0.0352494 0.0051737
0.0096328 0.0391428 0.0005428
0.0096328 0.0394453 0.0005556
0.0096328 0.0395059 0.0005597
0.0096331 0.0392034 0.0005447
0.0096331 0.039385 0.0005547
0.0096331 0.0395675 0.0005688
0.0096334 0.038905 0.0005544
0.0096344 0.0389634 0.0005484
0.0096344 0.0390831 0.0005469
0.0096347 0.0390231 0.0005475
0.0096347 0.0396281 0.0005772
0.009635 0.0388456 0.00056
0.009635 0.039265 0.0005537
0.009635 0.0393256 0.0005587
0.009635 0.0396906 0.0005878
0.0096369 0.0387856 0.0005684
0.0096375 0.0384903 0.0005937
0.0096378 0.03855 0.0005888
0.0096378 0.0387272 0.0005747
0.0096381 0.0384309 0.0005997
0.0096394 0.0386078 0.0005812
0.0096394 0.0386675 0.0005797
0.0096397 0.0383725 0.0006053
0.00964 0.0360772 0.0032538
0.0096403 0.0381981 0.0006372
0.0096403 0.0382541 0.0006166
0.0096403 0.0383134 0.0006094
0.0096422 0.0381397 0.0006512
0.0096428 0.0360213 0.0032869
0.0096428 0.0380819 0.0006684
0.0096444 0.0380272 0.0006931
0.0096447 0.0378569 0.0007425
0.0096447 0.03797 0.0007088
0.009645 0.0359684 0.0033303
0.0096453 0.0359166 0.0033828
0.0096453 0.0374603 0.0008753
0.0096453 0.0378 0.0007603
0.0096456 0.0375169 0.0008553
0.0096462 0.0358647 0.00343
0.0096462 0.0373484 0.0009166
0.0096462 0.0379128 0.0007237
0.0096466 0.0377431 0.0007806
0.0096469 0.0374041 0.0008931
0.0096475 0.0376869 0.0007987
0.0096481 0.0372941 0.0009444
0.0096491 0.0375741 0.0008394
0.0096491 0.03763 0.0008144
0.0096494 0.0358106 0.0034759
0.0096503 0.0372375 0.0009653
0.0096506 0.0357597 0.0035259
0.0096513 0.0357072 0.0035775
0.0096519 0.0371825 0.0009919
0.0096522 0.0370722 0.0010469
0.0096522 0.0371272 0.0010209
0.0096525 0.0370159 0.0010703
0.0096544 0.0356553 0.00363
0.0096547 0.0369597 0.0011019
0.0096553 0.036905 0.0011313
0.0096556 0.0356022 0.0036759
0.0096572 0.03555 0.0037266
0.0096572 0.0368506 0.0011644
0.0096591 0.0354972 0.0037787
0.0096591 0.0367969 0.0011972
0.0096597 0.0367428 0.0012319
0.0096609 0.0354456 0.0038347
0.0096613 0.0366891 0.001265
0.0096622 0.036635 0.0012994
0.0096625 0.0365803 0.001335
0.0096631 0.0365272 0.0013684
0.0096644 0.036475 0.0014112
0.0096666 0.0364225 0.0014597
0.0096678 0.0350209 0.0067216
0.0096697 0.0363703 0.0015141
0.0096719 0.0346947 0.0069853
0.0096719 0.0349687 0.0067772
0.0096725 0.0348006 0.0068831
0.0096728 0.0347481 0.0069344
0.0096731 0.0363206 0.0015747
0.0096738 0.0348553 0.0068422
0.0096738 0.0349122 0.0068091
0.009675 0.0362303 0.0017416
0.009675 0.0362747 0.0016544
0.0096756 0.0346425 0.0070503
0.0096791 0.0345944 0.0071316
0.0096803 0.0345459 0.0072103
0.0096813 0.0344963 0.0072859
0.0096847 0.0344481 0.0073625
0.0096869 0.0343972 0.0074284
0.0096891 0.0339094 0.0078528
0.0096897 0.0338506 0.0078809
0.00969 0.0339647 0.0078081
0.0096903 0.0343447 0.0074884
0.0096919 0.0337925 0.0079044
0.0096934 0.033735 0.0079353
0.0096934 0.0340181 0.0077616
0.009695 0.0342916 0.0075444
0.0096953 0.0336784 0.007965
0.0096959 0.0335081 0.0080641
0.0096966 0.0334528 0.0081088
0.0096972 0.0336206 0.0079931
0.0096981 0.0340713 0.007715
0.0096984 0.0342372 0.0075878
0.0096991 0.0335634 0.0080253
0.0096991 0.0341841 0.0076359
0.0096994 0.0341278 0.0076747
0.0097006 0.0333978 0.0081572
0.0097016 0.0331303 0.0084303
0.0097022 0.0330762 0.0084788
0.0097028 0.0331831 0.0083706
0.0097034 0.0332369 0.0083128
0.0097044 0.0352184 0.0053494
0.0097047 0.0333447 0.0082109
0.009705 0.03329 0.0082584
0.0097088 0.0352619 0.0052453
0.0097184 0.0391509 0.0005847
0.0097184 0.0394519 0.0005937
